864
190801.9860796661 183218.73562774432 -33126.639400592285
189625.8699888324 186129.81614781468 -31329.70789254609
193718.9886219435 177478.3590547814 -34185.90791356164
192265.05287098858 179686.267000166 -35362.59986717067
196592.8712881019 177044.6605527104 -34440.637790071174
195192.4341818972 179323.1515297644 -35786.80801185884
193652.17049646468 173530.8585199139 -31366.85615431283
192341.4031530505 175737.4976493702 -32627.484538344754
195124.6439699582 175277.93874985428 -32952.8364456324
196397.27615247408 172880.2952400569 -31515.21816417755
194711.1641632421 178291.13042612092 -31808.63824435653
193751.5762294321 181507.8727711205 -36927.46915768684
193931.63318715012 186276.0074920214 -38787.448191245094
192390.8407466314 184025.3902223767 -37710.35701480321
196702.66078992368 181288.326921986 -37142.7676046564
196924.2847631396 186080.5804002296 -38985.526356858645
195338.5424099043 183798.84424557598 -37989.35937917248
194091.2766426813 180929.7259888128 -33342.74639580855
193204.7289379551 183608.4506294099 -35004.848984170814
196595.3967409912 184339.10708087918 -33815.318166991834
189037.2264747155 173044.3945114624 -29286.1941799687
186255.2512626692 174002.91335693648 -28961.81746849306
188058.94527587752 175326.3803587263 -30910.27495397011
191852.249744786 172142.4776791005 -29539.765353276358
190834.8416194226 175024.9676815496 -28230.00649290499
188195.6645501653 169421.7607093425 -25740.18550565336
187219.4781643926 171708.0022075661 -27359.62709060232
188334.2062653309 173825.90605123248 -25823.55512141745
191009.6335018915 168516.6551440355 -25997.04577670677
190021.2060954794 170775.3534021639 -27647.58177623814
186362.2032612367 184267.6588778949 -29670.550546725502
190811.7013228628 177398.9490145276 -30798.57676243276
189447.12928125059 178723.4320832936 -28379.19474535602
190471.67887089672 183360.841629188 -28313.21466033901
185971.7265734825 181373.0685289133 -26824.09934301198
187306.6938156193 176547.8733996503 -26815.99011169158
187530.2087373094 185805.3353724353 -26561.27189686347
192842.4823905104 169908.24062264452 -27857.019869975582
194691.0712019164 171339.2435236851 -29700.126386974
195711.87455630992 169140.40559858672 -27971.73476147325
195809.3680810915 174582.7747473535 -29234.75318239022
193854.3974848098 167690.5859946089 -26167.922894098312
193225.31968737682 173411.52514894732 -26960.21820501334
196731.7639759963 166967.37618218988 -26227.11333113494
196480.6997314894 171963.2395889588 -27193.531368980908
197005.30474744592 175185.1889697605 -26280.86636653017
193002.405136066 180633.9380584458 -29700.75293015591
193222.1362855767 176817.2088728663 -29430.69472200614
193990.3134789647 185407.0256580376 -30370.20385080326
196570.6392046 178165.3780802565 -28708.69859675965
195870.1404104114 181725.07091852362 -30158.55198528582
192044.6485219447 180340.9153512745 -26128.8977595955
193959.2138244996 176924.1319010522 -25948.3983084547
193866.89379111622 182767.39912485398 -27318.40614056441
193879.21411545618 185659.65986792822 -26208.38517080546
195058.3279242168 180063.87035628172 -26658.98145892744
197162.3015041204 183812.03810860752 -26904.24365476444
188390.6540446418 188712.55166885562 -38795.51456771406
187907.4506895843 186489.7856006921 -37868.359240626836
186897.0236707234 191209.8795356974 -39354.85624014702
186135.1176547165 189014.82838685162 -38395.16727034098
190751.50305122772 186718.9885529662 -38484.653565056986
189521.6451506002 191164.75443519122 -39787.60295701637
190598.2588654338 189100.5254849561 -39365.76016254489
186108.9141581466 189013.1912029607 -35900.87294110828
185653.57753525148 192368.1150323556 -37195.028191383986
189221.2798223277 186977.2532145676 -35364.09478339711
188392.64529896498 191321.3634525189 -35702.31832850647
188141.1469029042 193654.33011058328 -39888.23261453134
188162.1126352289 198857.8230120349 -40145.56369237035
186727.66720140958 196502.7349667639 -39961.50297222877
191083.7571721392 193682.5904388967 -40008.500817669184
191016.8519031954 198804.4118254921 -40317.8161457318
189615.3764965471 196256.40883508621 -40107.906932938124
186733.5539447449 196428.19919596848 -36966.564256880454
186967.7871571457 199570.319610526 -34418.77636959482
190099.041308208 193972.727813062 -37494.761916424424
189959.0059147728 199416.5423290102 -37119.166106446406
192583.7195890036 188366.13265195108 -39407.33941437665
192579.83992594152 190888.9043814266 -39866.59560035297
195261.88997010852 188958.6390116209 -39793.33344299752
197349.7516764886 191206.58333056842 -39974.68955652083
194921.1109304759 191611.74788093258 -39972.92681746663
193059.82490071488 187359.51236390742 -34428.99788787178
192500.3685449232 189892.636756506 -37054.88197112633
196510.527303993 186768.2148986565 -36478.40708207741
195570.3296343422 190962.0336359635 -35952.09558100211
192545.7760569637 196290.7751802182 -40231.765494203355
193958.2066207197 193748.8171174732 -40100.33262071537
193965.8894483531 198841.85482463782 -40449.12530191215
195264.02107020142 196320.3553204033 -40308.93733716569
196313.50392658068 193975.7652438659 -40160.112002520786
196608.4783117128 198799.7035355138 -40498.08458586041
193683.7533468898 194112.2541443656 -37344.5676036775
192864.52957250652 198112.55067633392 -37710.73729078297
196699.0158202083 193976.290127945 -38032.15314261694
197163.5791005643 194169.62289454552 -34814.80780637263
196333.0596905676 197713.6324711098 -37314.92444963447
186202.626439796 189029.8303783779 -32783.04345499362
185827.4600797566 193604.8772510538 -33180.548328475736
189749.8783450904 190167.1324799066 -32205.61760265002
186679.99918376218 187759.33067916508 -29608.48777216758
187123.1584605301 191966.79866958558 -28947.859402062888
190383.0235966 188268.25827196462 -28419.71599386859
190776.8699878715 193267.8854785251 -26533.095062893823
188731.8369889289 196326.1560442883 -34236.61037573516
188141.51741399 198424.1574576554 -30258.619751291888
191639.89505169058 197344.4038312039 -34192.63702249663
190017.578562207 195380.0527428001 -30892.47086769337
190004.61427183799 199545.1994467469 -32703.87280875532
191483.2076685679 198844.7056362937 -29713.5434132879
187667.9620855517 195909.8717885478 -27809.654171843322
186047.4290548396 198137.37819199328 -26166.09279204922
187831.8967124208 200854.8812967651 -26875.03562768671
189464.0927616663 198546.3438198599 -27680.9929698466
190156.21966069558 196790.33645339168 -25739.16844130446
189441.3981467167 200914.9017600097 -29325.71786248479
193476.02472473492 189305.6662476118 -31370.9553000594
192522.8927643838 192800.77142876582 -34046.40765734908
196675.91351176132 188571.3655304301 -33577.01862894984
196957.000128754 187519.46835099388 -30564.41500824851
195849.608495599 191598.5073081445 -31876.14665493017
192978.06073127358 189436.9690863627 -26352.01720846353
192880.32813220768 192801.07011965648 -29632.56899959712
195680.5828978103 189789.36680066868 -28364.8161906549
194820.1660426544 192416.2140596302 -25861.4288798774
194564.9041369897 196953.50297921748 -33046.093828921796
194029.3441271531 197419.51104985902 -29429.11177979999
193709.45855879778 199791.4207324332 -31205.8242372993
197015.0604377927 194439.12436830622 -29985.881871841608
196320.19514505338 198684.8116323201 -30771.33299348823
194479.9637522261 195475.0065180611 -26724.25998825124
191758.981572794 196720.5853861011 -27711.01730702708
197102.41389465862 195488.9317121573 -26591.38665173574
196739.54622444048 196638.36784507358 -28630.76252371681
173676.7536863205 175745.04861382578 -22416.807467214898
172587.2934584369 178143.3652274546 -23054.77383439781
174836.21289739732 177289.1894520841 -24682.688286026198
172555.08742297682 174176.150454707 -20166.16535420954
170556.0270865183 178963.8626917973 -21164.931249230438
171570.2060247291 176664.5894112633 -20830.59222324908
174960.3217783804 173202.1186525618 -21613.94986873028
175192.06583440062 178934.6824408494 -21631.92454376372
171273.9087555646 180499.59229431808 -23169.03663415376
171928.3142466629 182349.811060706 -25254.38956025281
169976.2517640722 183115.58741693638 -23162.765589914918
173516.5042424548 179746.0135487265 -25222.351348073928
174161.75561378698 184199.20287796832 -24572.93975531637
169355.9962694088 181192.03105953222 -20961.07777906832
168244.2904018407 183941.4935615499 -20894.76978106669
172409.56835354978 181794.5016067304 -21646.579400733342
172839.0412722632 184778.571774338 -22054.149003171533
177539.1984681595 172593.3316578747 -23015.17830089859
176122.3932059394 174805.3226869394 -23803.22190717619
180142.13440093287 172079.98269683632 -24206.09302365227
180946.8609617466 170137.2123188806 -22967.625959268702
178749.5877591808 174208.5518250607 -25164.829066394548
176657.6860489974 170516.1213078742 -20695.00940004912
176227.3723003565 175604.1295837225 -21236.19397094656
178861.62438769362 170742.7733952732 -22291.23943859383
179126.550439178 168971.2012993884 -20914.3939354279
179552.71210426948 174283.5702607318 -21787.845139215922
178487.8993775484 177434.9636753709 -24253.44871156874
177912.5855215571 180496.7103889223 -23918.81873165989
180907.31846826052 179903.24746095872 -22448.66309064795
180019.6574146797 184278.0749917512 -23936.33704568989
176043.5577576197 182909.7629063109 -22179.28441424017
179045.49250588598 177291.9796884897 -20166.78431298012
178493.8163279401 180753.368951435 -19863.89805230234
171448.5767810229 172616.4566214612 -17936.84394282426
170376.97194193173 175254.04023928018 -18459.521420124092
173790.99436351418 171595.4215743478 -19416.157120258587
172637.5946087389 169998.0813917137 -17192.59831094678
174175.6964265432 174440.5522768655 -17832.18218000111
169316.71185448612 173779.10061503822 -16196.10484804912
170333.2784065904 171050.760892302 -15648.03659610653
168444.986041695 176883.9708607242 -16924.01886552975
173960.5747185895 167494.331276986 -16317.312004257261
172362.6625080248 173982.88210134523 -15266.89138735505
168821.3795417705 179388.65943018562 -19036.04347530647
167617.5515560956 182034.9886925522 -18710.06397540736
166652.6194861827 184842.9259140323 -18582.688264139768
169981.7347296128 177279.9037228424 -19304.167725528932
171858.1242570317 180027.0547996057 -19137.66324578323
171403.7309510651 183765.19594491582 -17976.22566640889
167070.2365665508 179959.7949894773 -16547.944387699972
166066.163424578 182961.89237477508 -16388.14850392146
169007.356219946 182360.25816384092 -16079.80795007862
171826.90277992628 177489.42900158098 -17541.52005483409
173562.25315837658 181225.3441113011 -15882.90602190262
177427.42353421368 167731.55648845888 -18823.22930216755
175030.8581856831 169005.5003027954 -18318.13193772992
180061.06232328282 166630.8808734782 -19362.715389433808
181021.8037368221 164321.11152960532 -17770.22919301575
179782.4176256278 170592.3386165577 -19474.875050337763
176061.3429467287 166766.9123966292 -17122.38287988228
175391.154676187 165197.94847208832 -15434.36976031362
175327.84402048308 172096.8953431972 -16796.17635164091
177307.6525915485 169706.1497900159 -16692.17544941907
178069.1017887973 165249.3895036566 -17028.75877399213
179324.8691823185 162996.9590074454 -15755.85239031163
181192.49724249222 171059.0823261759 -16203.627422981712
178667.3601176216 172471.9624821551 -15271.13063891379
177531.7785874997 173394.0005198582 -19257.02871106375
175167.97239936492 177574.4802381778 -18567.91938193863
174989.2851428388 181762.1265638908 -19041.63747154042
181462.38114066218 174659.8229601608 -17876.878671028488
178608.294187372 184201.6103431934 -19365.27601318691
178316.1334325907 175661.0403216757 -16107.94916490045
177412.9107756741 179164.5632312139 -15973.34420333379
177384.5031297395 182955.7328081682 -16009.36495844482
181108.9952749745 178151.578498466 -16401.783281412
180580.50926011088 181700.12758113982 -17477.04290921088
168814.54209603483 185845.8259689135 -23078.85986309154
167793.07654805 188600.7159622314 -22918.831864509753
168442.5682421611 190470.3466236654 -25129.75007965504
166911.1691990696 191423.840596884 -22781.943007514852
170584.8150292371 184997.3866053116 -25241.1711130683
169459.634319006 187714.8356356356 -25231.73426622122
171983.6238628452 188217.3905373588 -24348.2819268596
167251.9487131541 186698.9577011408 -20743.27191664597
166339.87728135652 189585.3009512711 -20566.02774413009
165554.2550053454 192389.19039648498 -20357.08665802702
170471.0093778334 186184.7914094353 -20388.46711315842
170233.2559480436 190670.1238858836 -21802.19424264892
167533.3140031441 193292.19052086922 -24989.77105617258
166734.52083098682 196156.6678534391 -24788.644435892133
166081.3976616132 199036.0613786664 -24505.22860245535
170988.3157772587 193881.5959429589 -24172.04226756822
170445.3492162298 197436.5994799096 -24666.17925995255
166120.0224326384 194261.0358597918 -22565.82212491973
165443.6630412045 197139.0988348021 -22296.75880308935
164914.2994775223 200041.8636528461 -21966.39903257229
168582.7798757102 195720.667907919 -22510.66444465391
170298.1793441128 199495.13996794578 -22126.95445540626
167267.81649010768 199077.3349761322 -20383.370730429342
175948.8816324815 189753.1103456774 -22530.31172837306
173369.23296110332 191546.0997047425 -25196.7351943593
179279.4843399815 189335.1115215934 -23585.45174852227
177330.5731412534 185969.8613068566 -23459.27917210803
179986.9314181301 193535.35699982542 -24627.23211085403
175226.618509028 186875.157537352 -21085.34173454538
172970.3819680649 189346.1819130088 -20496.8310754983
173768.9870152789 192763.9698475856 -20463.22813640034
180191.83933610612 187370.3514999142 -20320.62474340338
174090.3650619029 197476.0277586179 -22952.72992258706
173552.74833266548 200226.40862313 -24755.61018012939
176565.6692002279 193988.4510734787 -23314.44411600946
180011.892121974 197340.0725775655 -25223.85584693679
177126.1675380022 198221.9706784304 -24212.05844965762
172062.6627163417 195776.8235809367 -21121.563318987948
173155.64226278078 199349.29549592148 -20301.96249281109
180299.2009992767 197229.77040705457 -21774.84429416485
181205.37408747568 193797.48124457858 -20769.58079527458
179649.0442447819 200796.6749393626 -22508.83565120711
165780.76209434142 187655.8129965599 -18394.88076348755
164973.93273397692 190542.642107222 -18169.23603502124
164252.35327239262 193416.644877276 -17902.336478615278
169281.22455799332 189157.92225946582 -18631.670498485662
168841.3079004291 193046.2486987214 -19938.18657149844
167001.8232910049 191327.8794660406 -17666.495714712797
165213.1513124609 185775.2200966281 -16139.321583045032
164461.109982683 188637.43922016578 -15929.98906337607
163749.3348640758 191528.7441445993 -15601.939635898929
168838.205033812 186418.9125272285 -16424.292146115182
167058.9452277953 188870.4463402513 -15695.65340886864
169383.1922041611 192923.3308111574 -15700.41313269262
164841.09012258778 195259.1155397358 -20079.42696555254
164252.9670231729 198153.16357396508 -19773.03213525128
163823.82366178918 200996.1519975115 -19463.898923892968
169466.81939468518 196300.30275879282 -19006.88559737495
163620.7694617351 196268.20819959638 -17567.70410279612
163145.9714566644 194403.6570489068 -15305.540382110581
163117.2383134676 199197.1460406703 -17248.761923049413
166511.84800919401 194268.0729150269 -16708.57262023624
170236.6367483614 196078.5962309146 -16001.485375058579
166122.12350584348 197956.6163054234 -17466.90807568725
166689.45751683658 200843.3021796807 -16627.83766369419
174988.54413573822 185053.9698920405 -18026.992302355273
180596.8065418237 190842.4944136737 -18125.08737557442
178065.82776567258 191770.762313993 -20209.77949457213
172819.3087376928 187703.0934443541 -16934.70667382494
172247.100800468 191238.507795293 -17567.613998881432
175284.1530704997 193783.8437603605 -16979.42774993514
176496.8129509073 189916.0641974633 -17599.618528232
179135.5049329257 186764.99735075212 -16785.94824412167
179086.9286895054 193841.4556085507 -16837.80243532392
176489.826864787 195702.6905333297 -20106.819521773938
177008.7127312617 199047.23827990118 -20123.57800133403
179699.4508558705 196496.7804611879 -18526.86997167292
179349.321454589 200814.8387260522 -18451.172444823053
171767.3261766546 194159.1165201934 -17887.851056782838
173674.59711199542 196900.1561849282 -17635.14323899832
170552.1104653384 199309.0464905761 -16639.07383597369
177617.5697459017 197810.6256559026 -16283.294910424062
175090.40213029372 200848.0117829165 -17710.03844738282
183621.9749686009 169110.54402452378 -23421.78421092094
185410.27018486822 170389.2391379022 -25413.07408167299
189192.16119912828 167177.874848933 -24083.73554117146
186389.4310614543 168112.6066672442 -23784.071354451138
185588.4587536124 164593.7832331522 -20128.18104170885
184640.61007576028 166804.7954586744 -21794.02701031771
181838.27357997218 167849.30070183982 -21393.422258917257
187395.28829235208 165879.7504588101 -22123.93351273569
188397.79462339068 163677.0865312111 -20394.92704567574
187330.8334221871 168752.49161609032 -20994.34347467925
182723.91414890983 171374.00092498193 -24997.0908513854
184745.86771415052 173546.0883137458 -24005.96473735868
181904.95160812172 176090.417288314 -23530.353464729782
186182.5782469288 171127.583799025 -23158.519115651772
189222.57134289792 179436.4516077211 -23543.368855231543
182417.5596761969 171849.0293408029 -21085.26472787658
183828.70157067312 175615.44931881368 -20310.075182541597
186740.2598827869 176246.6826398696 -22336.165278421748
188400.5298601778 172811.1280619584 -21687.88843033904
188943.1259545981 179779.2955397987 -19889.87315581133
193048.49828091118 164155.1869268759 -22530.225987113852
190202.51269643859 164977.9336342738 -22358.79396489538
192014.417176199 166297.54897702052 -24302.9318273785
194880.72604992872 165505.4696583042 -24443.62902191887
195924.8066950557 163427.6056104033 -22606.983502113588
194896.63112492222 168641.0334540548 -22045.92472322152
194096.9152478921 162053.99326130812 -20714.784159214752
191233.74704251363 162825.9759602361 -20594.816165215492
191285.8300153415 168668.2693369671 -20721.04027192298
196980.07553098482 161358.3508927885 -20703.34936501413
197066.28625807998 166216.24281224958 -21128.05999429353
190057.9303877741 171012.7981318629 -24073.8165569465
191021.4332206403 175669.6836976218 -24055.79320174083
194627.32379389042 171546.6137202044 -24127.49305795758
195628.5305044324 175519.74935203278 -22655.158316596262
191614.43363561388 172441.97432448622 -21073.79293403853
193052.7774468045 179141.5462947405 -22277.78229196084
189874.7539099741 176506.58232208452 -20640.94181030331
197285.24055666052 172454.4320041684 -20212.99266096506
196842.202150261 179367.2867821672 -22353.76013399296
183792.6376474298 163309.7789871704 -18143.247583154618
182799.448665103 165574.2432218879 -19786.22614633441
189422.29130024422 161505.2870455808 -18666.72213419531
186595.3797320702 162376.703559641 -18442.58721488054
189705.73799897882 166420.6078704999 -18682.310102777312
184790.201559068 161071.5789592669 -16476.4913110381
181994.4963142491 162029.39973621743 -16165.105869545108
186541.28374824548 166372.35172205372 -16751.581098764033
190450.9994238799 159349.1088529473 -16890.05389645557
187607.307402926 160177.58086409 -16716.03097433112
188446.7960271913 163749.3168582712 -15617.818679261569
184518.9338675345 168920.2136578681 -19452.17010196541
182273.36939762402 179217.58512704988 -19491.14557715918
188656.8825073456 170499.40186666299 -18026.0460663788
185617.8599908796 172554.4198429634 -19769.82465287521
181502.02251685748 168673.4671374622 -17884.4678014944
184618.6611185699 171338.6963728138 -15726.480050632601
185720.6272462024 178224.9636905168 -17737.8165052283
185077.8826529198 175083.6295761531 -15542.42967933973
188308.6178565341 174170.4759159537 -17730.10806568576
190035.3346708877 177218.8857159217 -17504.387691827058
192273.9799696733 160714.6847235489 -18827.942156403067
192913.5328672082 165591.5484066593 -18928.83435455511
195088.27868967672 159970.5170607504 -18846.51820202241
195848.3777717169 164043.04977494662 -18761.80872316683
193321.1660649112 158597.41190421142 -16989.550614273892
192594.1892977662 162534.0518989664 -16940.77869520968
192619.2592914863 167640.6618852996 -15992.21189750557
196222.6046901163 157936.38497245748 -16996.988714263338
196590.2783029884 161836.7849976721 -16794.86347242803
195349.07452735188 166924.3678291032 -16803.78860562776
196644.3065788317 164587.62957552698 -15555.78731014869
193156.83614932332 172574.1695575076 -18025.2566988822
194182.9663780912 169477.3163834834 -17621.59322741842
193021.1203275957 175078.43352160542 -19679.59635008284
192470.1802276609 179544.0096609903 -18630.27936570554
195253.95101172218 171341.6107350662 -18977.78735835633
197013.7075419575 169136.3286732888 -18847.039072789918
195594.7646559473 177351.1767845872 -19727.76513689157
195966.6316012156 174496.7393652677 -18282.81114153103
191608.906531863 170325.9968016078 -16519.92895621471
191218.06366003072 173691.8008293855 -15610.89637989356
192627.961166037 177090.6155596775 -15729.43463619467
194191.4592527021 173963.8651424139 -15243.30634341043
196067.3803849714 178498.699355303 -15497.734115761548
182261.041544243 181929.63402362302 -25083.06749417972
182533.9624699156 190803.25460684238 -24103.377511926228
182640.3889165733 187274.5733142389 -23176.72360438906
184993.2200846774 184303.698171322 -23642.79940884746
188383.2819185271 189289.950663653 -25112.89626174924
185636.9835629524 188082.5082992844 -23961.49471433721
185034.5997360705 180116.5287007516 -22343.45153035652
181903.60750938128 182949.141255012 -20994.73382310499
182213.222621975 190121.1287463843 -20865.13392944471
187589.4028374781 185853.7105507536 -22292.61350709111
187816.34594385678 182767.36447593852 -21020.30341085039
185737.091773515 190414.42345761662 -21790.31335308699
183049.2062645436 194211.8211078123 -24372.53280157742
183210.861044453 198672.68047939998 -24206.913408723678
186487.4456903425 191722.3207550277 -24446.298201302012
187434.2085200866 194706.167421045 -24325.14308970199
188208.3774030777 198782.1440973086 -25358.03931451239
186737.8909882072 200935.0356638949 -24258.25656518862
184762.37939954648 196609.31264348698 -22240.29614322426
184431.45782219988 193074.29176803937 -22002.87114854801
185865.0344616588 200703.1795804629 -21466.35411294384
187448.859986467 193582.0610037653 -21221.30698917071
187234.9686725296 198552.2462752433 -22884.72718980206
188441.72148662552 196361.5719396501 -21512.13214718915
188746.52814790452 182926.4898505634 -24479.275375812707
192077.6244203289 183064.2656302963 -23994.40566923884
190498.90719128252 186488.1233143496 -24662.94520322196
195375.1065608708 182399.7796424899 -24122.497731064002
195921.07106995248 187695.65544540068 -24514.2522218636
190839.6408154945 181908.7309365181 -21327.505486318412
188992.80719442898 188452.97515752132 -21626.108863252728
190393.0550244464 185188.894366848 -21085.05042357258
196813.1046105067 184864.9074950621 -23122.81074897815
193168.9074560749 186702.8319923965 -22675.75918513707
191044.04488676618 191350.80459089729 -23557.633207824078
192177.6581012468 195474.6140617642 -25438.571125253708
188800.1593405418 197015.9193845126 -23825.88607991725
193685.77160603768 194302.877733199 -23855.99079567285
196206.9924798557 194409.42643462258 -24517.26279528476
192754.5276512357 193601.8136425358 -21215.088518458062
190794.7523154869 195126.6290251302 -23236.025312890517
194098.68655777568 190437.1531312018 -22675.78591870354
196822.7284731084 190906.4234208836 -22220.57373250433
195405.5837263983 193325.4872525264 -21849.067066058768
183892.7172860043 182152.07795338528 -18326.29457723412
184703.3924452574 184290.4325464553 -20379.97773499323
185182.087917787 187766.0614697924 -20328.52608848756
186811.083962036 191613.7877430798 -18426.314307478482
183031.65228589528 180917.6044276195 -15512.61392037946
182450.6767289025 184900.332183364 -17586.34087083892
184040.8819300443 188597.2121779638 -17018.283923193143
186628.3556959936 185281.44269153383 -17478.62381536722
186964.9283867536 181857.847791904 -17478.547264813522
188479.2640188637 191069.4813310241 -15865.83452416947
185154.6641077695 195097.0812029473 -19142.12742113173
183998.16308785422 191820.5095932378 -18893.41757014171
182934.311263878 200563.36891857008 -20551.85040107276
185210.6823188863 200289.19525527873 -18638.60674232035
187816.6246156125 195956.5935619603 -18682.77739847613
186631.31442517808 198206.5575456881 -20135.31630983208
182821.4068385446 194701.8953856508 -16562.532301903448
182671.9240367988 198338.8302399712 -17961.31881651359
184566.135554028 199854.1275977462 -15815.60595382523
187232.2247475968 195540.17146365918 -15843.681953142699
186008.1384373756 197782.5098485667 -17276.98825081556
190385.78544652488 183192.277811709 -18477.87502231827
188949.85919445238 187841.6453314939 -18380.204749546672
192737.42434334592 186147.9782684388 -17912.31296221603
194242.6385542275 183131.06965025348 -20245.412222191677
196073.2634652546 180379.0751172551 -18779.58426160569
196230.7663667116 186943.6164987293 -20447.678174644127
189830.56048015048 180686.45720226452 -15727.02218500313
189792.6779175624 185082.38121050622 -15992.94304380092
193602.73585380948 182221.9609143854 -15602.893927802039
195440.7901603009 185814.7335280373 -16048.626630037808
189495.8224248585 191479.60150967923 -20344.57174167865
192243.7106496436 189605.5953066657 -19872.87397496388
190028.8213232109 194501.3731839194 -19905.65258725071
191888.16599523032 193018.4512998552 -18269.93683701065
195345.2336142021 189459.3085425051 -18232.97492194517
194612.8627958412 192574.86671522429 -19239.53761875803
191252.72634341058 189670.8028639815 -16291.62453864431
189397.46574530512 194045.1607264884 -17126.25584207041
191235.9311577587 192486.0653554229 -15466.923971742011
196702.6008228878 191808.688546023 -17339.87222605123
193901.29734915358 191851.85912357742 -16495.12506732781
174889.6677358704 202279.76865564712 -36454.50084682322
175759.8466742993 206489.5645544338 -37124.18493092036
177482.1941959004 201569.60444476063 -37793.250693527814
178085.17508541088 206445.4332604881 -38190.62954812785
176620.54016773312 204264.4144262186 -37531.75430357969
172910.77692262782 203111.6323640417 -34559.24971794552
174336.13031670311 204989.08658409 -36073.41607211417
172397.16880411582 205930.30190781128 -34130.114037086816
176698.29276684028 201122.55530947 -34618.04730718959
176434.4333859191 205148.348161074 -34579.81752154889
174038.110143551 207615.6857933994 -35672.91702845529
175630.8322564998 211548.3648879686 -36541.587173471446
176269.7708352369 209006.2625495429 -37230.951273170096
177986.8668300069 211389.6954009787 -37738.11641738509
172069.63501037832 208781.00551165972 -33575.35590855855
173806.1294146749 210371.8562842104 -35034.7363154023
176891.8933598671 208687.81095553128 -34848.34447958871
177338.95406117552 211480.73218965338 -33614.3856617548
179269.3722564488 203724.8590997273 -38737.704134584594
180706.28202363948 206260.4464033078 -39396.58987265238
184384.73507084278 201696.8578182253 -39947.60771337465
182073.75149646 203127.8226004154 -39794.17108668482
183530.50685969667 206307.1551257348 -39900.523894002145
179178.44225704728 203471.0113797022 -34643.08305270847
184473.56526474011 202214.2781329187 -36367.07324618838
181910.92413595231 204522.97033537918 -36636.83970117842
182008.40040719148 208984.2972833856 -39757.55850900703
179356.4538973888 208889.0636911879 -38614.44554716411
180650.67505339452 211466.3123878325 -38859.241898986314
184966.1960934796 209026.97392122122 -39955.947951126975
183466.7291324533 211569.4440959351 -39791.976117016995
181671.7919670158 208172.60178734988 -36304.094206415204
179884.0149738943 211554.53102177838 -35738.85220942398
184009.7047223504 210941.36709036742 -36777.64671619164
170898.22730878272 204016.3307729952 -32611.47239133789
169571.6386352756 202018.5643450852 -30855.931119677352
170440.8311508201 206920.2820023059 -32114.101447838337
171489.5968696143 201137.8270454359 -32922.30594482234
173872.7300604238 205981.9887876701 -32638.71412145402
168094.58253408762 202954.0069067961 -28536.29242370062
169140.5693009073 204919.6231280778 -30388.88647901669
167715.6753373483 205815.5890929611 -28008.48437784184
172492.03171023648 202792.99170569002 -30069.92260495807
172714.5343551391 206012.5745848917 -29452.89077094689
170160.4112157581 209830.6736548748 -31517.78351816595
170231.4167352101 212684.72506689822 -30729.25858194618
172417.1313348274 209358.9248710478 -30367.79391616421
172023.08359095472 211649.5126787138 -33026.41239195168
174447.9441275621 211134.2216662752 -32223.86205662452
168889.4922178244 207827.92358678902 -29793.55468603912
167456.37606305582 208683.5456467959 -27298.12391222349
168783.799821756 210687.0502534561 -29040.58473948771
172299.8143282535 209387.7063507688 -27194.17941085191
172434.2878038112 212698.3365329141 -29244.04865974925
176422.3607648696 204028.8086327334 -31216.38027444349
180148.11467924202 205453.44825132441 -30135.39014526487
181971.8734860152 202102.9668480457 -32289.496224053004
183045.1249848957 205137.71612238098 -32631.609753702513
179463.7444346927 202218.3081123998 -29306.336824865783
176473.77874406142 203870.575698808 -27704.48679971488
178477.495572523 206308.51769874932 -27409.014419826777
184339.9229122307 203099.1806243291 -28418.65211255088
183378.574918859 206703.29283274672 -29468.94963355907
179971.83347112118 207440.5458880031 -33080.88423442221
176307.0609001106 208002.5479522123 -31331.871722762367
183908.9040447264 209066.4510934581 -32041.782535007726
181913.2973778031 211396.3542166922 -33114.558441092784
175355.7463561883 207578.73441758138 -27843.4987099326
179066.54549087828 210092.9964239333 -30114.39167569456
175738.1232332923 211439.3167444679 -29309.63377805871
181378.36139711292 208752.9298425166 -28285.46938490678
182983.21936516688 211814.141581314 -29069.56945625713
180746.6061594923 213163.5082319144 -27530.70396444003
176661.30250676261 213864.63951462202 -36790.810150923026
179324.7511432937 213927.8297268204 -37887.31075675747
178033.2931962985 216369.56625373013 -36878.666441004694
174215.4690832051 213448.33939057039 -34660.1723008099
173823.59575923 216046.6915214498 -33380.643501004764
178946.2256262514 215527.77925637242 -34723.415369555434
175798.4010974613 216123.4420821822 -35111.822710226596
177220.3937224428 218481.780373674 -35147.868979084225
178665.4538046642 220653.32497510288 -34927.80582368229
179538.5873253633 218758.7488130096 -36801.40975638984
179823.7441985178 222738.1614642265 -34265.760264454795
174858.8676936198 218306.3856209872 -33285.70561203917
176414.8543725126 220589.15312168738 -33273.751848698186
177908.88041505308 222425.9569879488 -33179.58142822033
178861.4756751785 224428.1573922427 -32379.64283595457
182096.0563330343 214044.5877529368 -38934.55941254332
180801.9746302334 216421.4208304677 -37880.721577869066
182252.2807689733 218880.6424296623 -37649.08469521049
184928.101087213 214153.20810696282 -39777.331169750614
183580.3968059191 216554.2437202965 -38768.065046797885
180477.3787494102 219246.22340407298 -33648.00591443887
182291.4561225316 213619.0816294711 -36532.83038757443
182493.31242927472 216003.3740768244 -34471.48929674116
181002.92343142602 221013.9355622405 -36304.954086134276
182405.20639015388 223312.0301836594 -35421.139475711345
183689.8458869287 221359.2050371987 -37218.52055458006
183995.778288275 225532.06889796339 -34437.75001709082
182213.5208137556 222947.86623728852 -32487.20001932308
181267.5002888405 225069.3909904885 -33355.204858641075
184251.86196075508 221068.1224206108 -33839.274484058726
182851.15490524122 227332.1962998964 -32321.938751956855
171941.583441762 214602.3049344812 -32159.84007314178
172434.4295836478 217687.54007795558 -31395.27854150905
175999.76581014888 214246.21154088332 -32190.23884498104
176373.5968690022 218021.5612008439 -31288.16141121754
170466.1893479927 215483.3784804798 -29794.73827286851
168883.8288987348 213536.7546396995 -28228.0136459953
170878.9861325181 218193.8625716485 -28715.214650524
169160.10380136938 216336.2459736326 -27285.783278860952
174241.5483369417 215774.9763780368 -29352.49853827391
174451.0323215432 219210.9251652969 -28532.84162999071
172427.2401964261 219915.0040492908 -29626.31563242466
174114.7385395565 220462.2536025048 -31470.06905600971
176195.626709031 223135.812239654 -31441.12694106633
175730.61157274048 224471.3447765617 -29307.10744847848
171505.11063643298 220828.5155117785 -27525.89202393844
173698.1909676899 222502.1869417607 -28932.034027386853
174521.341512599 224964.3244949501 -27287.474620284018
176988.9891529048 226519.6456080131 -28248.90391531959
179652.2007577096 213488.4208751583 -32124.923894847852
179310.7146996911 216490.4994971948 -31251.50895757931
180405.1792117429 220486.9625035916 -30757.012675269572
182692.66612226723 215353.9598263955 -30611.564088763513
184755.8041407876 218279.7747941286 -30855.84831678154
177924.5781595369 214588.8136958761 -28510.64464590284
178117.6157282647 222175.750394737 -29329.08468966084
177873.79639816668 218416.96770187683 -28044.00099213254
181300.0269695805 217640.83310256212 -27521.12457871167
183261.1080139655 221194.8058662882 -29522.70637025931
177870.1153798047 225586.8489607426 -30397.99387664971
181007.16917277462 224753.15151001932 -29488.22061761338
180196.3383900548 226774.5250520413 -31234.37026585984
181988.76728845658 228732.6378234363 -30102.08948562754
184590.4676426885 229511.8513085997 -31019.84778044254
179492.45915616772 227829.3880050856 -29098.59806722518
181330.2109858619 230183.0472381809 -27418.22828897643
184098.1712064361 226598.2612428865 -27449.3915229291
183549.86251033592 230306.02128060348 -29012.57194836859
187996.20682241282 203917.3236796098 -40234.25507204091
185019.63457562518 203874.7477663785 -40015.61014690796
186620.7458484335 201440.376910377 -40105.79041030234
186473.8652432551 206460.5177133478 -40107.40804661086
190960.6774577659 203871.30628804662 -40451.40701596802
189488.73325477232 201351.2296080565 -40310.90738331727
189434.9995428631 206491.3990583637 -40309.711681535045
187223.9072255141 201283.0261609802 -37778.11200070175
185239.46792565618 207601.1136503527 -37243.48897385219
190506.59557309872 204531.94621522288 -37932.64065680816
187733.3807868161 205252.6497409972 -37324.17082894349
187917.86213723672 209059.8301904593 -40141.37297858837
186399.2436458705 211639.8199254451 -39959.93118714674
187875.58220381622 214195.8530519661 -39909.84558467133
190789.4709347776 209037.5333701841 -40296.13286185956
189336.87874987148 211661.1805017265 -40102.15864014238
190822.7844412515 214259.5418657686 -39975.142188583755
187597.4962340639 211419.2615460368 -36944.48930854287
185914.4780866759 214606.9594171738 -36593.45266297498
189233.2776235832 208588.1146705171 -36709.958624871884
191061.28932335132 212634.9050550344 -37244.07684496312
192475.1319479511 201379.30221868042 -40519.5081958046
193855.4394874208 203946.3521756492 -40659.33956331508
192204.9164797548 206471.44073143348 -40481.166519934115
195321.4368172286 201519.10163286002 -40672.19942674538
196611.3469054125 204091.7637502512 -40713.994208043485
195084.8545043842 206633.5723611509 -40464.11781945238
192471.91227503752 202229.5693340454 -37778.53958667908
193406.0147504361 205098.2677063882 -36181.59746971742
195318.38422637468 201159.8511146082 -38291.914260911275
196636.9485088523 204147.7682519422 -36811.93595505212
193605.5877672412 209029.6615440736 -40356.53317367102
192243.3254545812 211646.0475366549 -40164.90095329925
193839.8886934089 214222.9207774544 -39651.11863205004
196450.2250007027 209094.9131515786 -40584.06367409825
195078.2187635052 211643.2856886891 -40208.171230013664
196682.6282986244 214222.8505106913 -40557.20236215186
192226.90260698498 208032.9813440268 -37968.649569616144
193539.01876545438 210341.4553120449 -36094.262332786995
195870.5024804551 208109.00199505262 -37964.549893663134
196795.2681884173 210946.7108632455 -36989.952681642004
195275.15957914203 214799.47151524978 -37129.7576563333
187016.3628978362 202404.92308807067 -31769.881981890758
185457.1701377522 205914.0308922577 -34241.66559722727
188524.4037718081 204943.99105156172 -33141.78329819632
189907.3659269434 202652.9854204926 -34573.30514696182
191171.758773988 206860.188990799 -34484.399439594956
190582.234389922 206327.102699776 -31121.34910155126
188051.58185812208 203132.81333483662 -28476.690199480872
187536.52457937348 205113.4252464656 -27386.49571650301
186206.9863407646 206092.1319653604 -30779.622328117748
188059.9452136542 207962.8498856486 -27158.987604351492
189805.9277904212 203554.164601263 -30554.26149848517
188841.3255024581 205774.5948739901 -29257.99425206787
187694.5766889919 209165.7442738336 -33054.34837605387
185063.61857750118 212623.23783208852 -33471.476004284115
190424.4273611938 211300.5084586238 -32995.926240913075
188823.9488987398 212456.2658460042 -30477.1953004858
188726.3468224395 214157.7205501411 -33900.91696625666
186886.5275008655 208503.7489768514 -29534.954215490838
185771.2097884465 212192.0550661821 -30139.31498920747
187208.1172133417 212384.2630534271 -27194.03326895997
190768.1761928185 210521.6285771752 -29380.73981208758
189697.94715993648 208511.8684427812 -29332.205378769468
191221.8296914549 212603.711896272 -28243.306724686932
189357.9671729789 210637.5800889946 -27579.05842874741
193408.725051386 201282.1892243155 -34394.11934817875
195084.97784561312 207756.884882844 -34506.131370975505
196902.1129431503 201128.5170279387 -34446.057845699834
193635.630978006 202257.3386653928 -31535.129511169922
191504.05045256138 201398.3639503881 -31186.61807260142
193453.9868476836 206927.8051282471 -31589.53240421569
192390.2303490918 204221.7262854875 -31489.84144005347
195296.0782774986 204672.25620783638 -31984.83875261714
195897.1250552106 201466.21308703872 -31527.19748420085
197346.3922920629 205850.9618778223 -31962.26146724457
196240.5789911102 207756.3299892487 -31710.9924984116
193768.46689496172 212373.5363990248 -33462.38239574405
192567.2627078618 215071.15713360888 -34787.1318678468
192021.2963816756 214083.25857907932 -31344.34823000955
197012.6112663658 210855.1740257742 -31726.81256846622
195928.72839731438 214438.6659927723 -33365.681887642306
191611.44321318011 209051.1819804807 -31104.33436530282
192727.3422789173 211562.77800088178 -30169.95585659337
193986.9855818359 213532.53736648711 -28281.758564376378
194371.8702115774 209710.3064956727 -31325.85351170885
195506.8056181608 212229.4116330765 -30393.146632127733
196741.7481485554 214328.263536404 -28736.42796066178
186418.2469814507 216720.44735221518 -39530.30344192624
187915.9167264248 219211.3434779284 -38967.01213894981
185075.0894395627 219057.77047173708 -38375.56010328787
189357.3431038904 216761.35802229252 -39788.74991795139
190852.6364020737 219296.5505406571 -39379.496329149835
184976.5745632379 218225.7438278224 -35885.14030125127
187809.76184302758 218359.9566120537 -34510.65050706562
189561.6898643861 216252.2621743859 -37127.59694834165
190838.3416928653 217151.0506515117 -33708.36562419799
190126.2875218526 220799.5955303885 -35849.89649480875
186534.07526159278 221560.17523916368 -37798.93825852709
188039.9014124718 223930.5363793631 -37107.78421690123
185145.3949821246 223801.1898319764 -36496.6373053294
189438.3370161511 221650.3783282554 -38234.43105154032
190958.4352720652 223893.12534168348 -37454.78084111468
189458.8541151892 226030.33673779212 -36362.44301422622
187370.7433585174 222888.5829844356 -33749.33443699342
186752.537071931 225798.0655408612 -35461.19717179902
188313.7265284592 227502.8293952806 -34519.65015454404
190068.1987800374 225205.38575489432 -33969.448448693394
190516.4776479701 227891.3777127408 -35065.45647194194
192318.8066955508 216730.75145094818 -39585.06910735969
193811.2568305114 219292.4670566774 -39434.09513300551
192380.4851638828 221670.4787369569 -38594.47151447573
195236.0959097049 216797.4023377379 -40092.39200403924
196771.56011598042 219283.64594510628 -39655.49958618638
195325.4199465588 221666.4073069722 -38720.16589641968
192992.1433164553 218366.44011927 -35909.96485624402
194854.5008247975 221152.6984271872 -35927.21101233906
196729.0482213875 217359.8764239285 -34588.37616849149
195950.9186289703 218401.8697874302 -37482.180802419985
193853.8901529743 223969.55736737148 -37635.391068887606
192256.1710307963 226127.066282953 -36498.99469930119
196769.7183026602 224024.6438271014 -37740.75508114352
195189.2732766924 226145.9703636824 -36431.46557994242
193053.7606149659 223909.7809504062 -34137.270796631325
193476.34766807558 228078.19579670852 -34925.27461231732
196413.7149029696 223868.6499409593 -33990.584920939815
196421.6224461204 227841.74035356322 -34397.89084058761
186101.0004795159 215485.3495876418 -32455.058253749983
187466.7843769399 220948.4373954662 -30422.93161134744
185322.0704785559 223728.13372825788 -30204.21641048554
189360.41488751108 217029.60490172132 -30889.53306980521
190585.6114625079 224450.0317238596 -30240.55248042153
186919.1186376226 215540.3616424822 -28904.299203353377
190384.5951809796 215372.3325325272 -27912.13506096719
188878.0637932077 219011.6066242643 -27248.79991183035
186113.0215849301 227989.5021597162 -33221.85499701498
187380.76265188868 226364.1548258675 -31319.91713425982
187294.17269661848 230470.9008055167 -31365.12353439527
188890.19822522168 229317.8575589324 -33031.83188836582
190151.86405606952 231324.2283575299 -31407.29351573706
185556.7488660828 228630.65323295002 -29122.738806806472
185843.4038040257 231252.5510163526 -29164.27790072748
189820.99495084092 229119.75126223892 -29633.58574598683
188087.226331002 228289.4590676201 -27258.54893813883
188533.3399446782 232221.64805496272 -29216.71757714571
191324.0924064691 220529.7541868503 -31988.365397593392
194383.9829358548 216398.8533988148 -31033.22787046097
195495.8631624871 220142.05160846378 -32142.36756319056
193145.1003332877 218148.5821597715 -27845.29472931373
191295.3628160488 221866.7676756134 -27511.769305486658
196705.9778774518 218395.4027508196 -28686.92315766144
195325.6418920451 222950.4789701338 -28839.97137178034
191754.9272435246 227950.08922448862 -31868.8504395423
191784.3343232025 229857.5003136911 -33304.6981046653
193032.0255690668 231579.2735850192 -31225.75905199473
195089.9770983505 226999.91818106 -31785.46026262266
194739.7756518103 229840.211629989 -32896.24983604421
195965.66231753828 231384.9920079989 -30676.663926795052
193453.1055203081 226408.5471941946 -28934.90631515836
193593.7968500841 229260.6232611626 -28617.72130345021
191295.12213833068 232776.5942714358 -29159.58934090757
194214.67395967492 232855.6784203903 -28782.66863462015
196953.8988654046 230142.96369673702 -28348.66120016558
197128.1458851841 232642.68683673049 -28251.24333948785
166599.8841848117 203820.4717894671 -26143.158688945343
166240.664534061 206680.3267130609 -25517.651620311302
170022.39483508278 205282.09628476232 -26896.61653281836
171236.47602314362 202667.9642662393 -25374.58976124839
169484.0597872391 208652.1055288757 -25651.62515436139
165611.9284103025 201845.9980600831 -24108.06284483786
164531.1117670025 202870.2974576784 -21541.16151781911
165295.6799367729 204693.89688426652 -23608.77608040332
165166.5652679378 207558.8918769328 -23077.949190666088
168262.51686726802 202006.4213454672 -24055.6219631208
168821.2162318879 205460.9184059407 -23364.03069353918
167471.70154727332 211565.9864794525 -26659.77366652507
166139.0179103496 209548.4897052586 -24957.496426697708
167564.4101573602 214413.98455811408 -25755.26566631138
166243.883564238 212389.3675710404 -24247.04086184275
170586.0320825001 212540.8159116522 -25537.315736963912
165245.9081246409 210410.5780058864 -22561.30573773997
166546.9771449802 215211.8630788857 -23287.373791036258
165399.37524442418 213129.1338119275 -21760.9037491623
168344.0689961113 211549.562462898 -23518.44539259026
168806.9777969573 209215.61983409672 -22021.0485408384
168359.6069217786 214569.278428097 -22467.40608862227
170849.0495227926 213355.65497714712 -21196.94275174227
173781.28546979532 203515.0286394918 -26749.15358448547
172626.49328882192 206628.3149343112 -24952.23272803494
176808.482339448 201297.77621389148 -25751.79772054485
180219.67575165431 201742.38560099978 -25924.03456285836
175466.2756122491 204836.3147524581 -23685.205562242492
171716.00168868492 203288.84869902502 -21963.62322797241
171774.9565725582 207116.3128804619 -21648.09116932693
175747.1340674049 201255.1399449571 -22092.68105995518
179093.2436833777 204121.8480414984 -23729.25153968215
179050.0050009223 206405.85906889668 -21343.18314483558
175920.8437612935 209458.1074806986 -24921.1580773825
174693.7651518078 213250.7858063823 -25396.37295672606
179235.5998935184 207957.46388406953 -24560.94107877361
178360.4295072929 210541.5264841232 -27010.88906560021
178823.087989281 212474.21436058538 -24445.99369180101
175804.07515597678 208298.5115869067 -21963.08201602773
172412.9415924594 210290.49779007578 -22731.83761971477
176721.0320643244 211842.64075459252 -21773.03717269655
179757.3792272645 209955.54731445818 -21979.52943018829
179433.53502117962 213929.1330859903 -21395.085111063778
163498.6790916248 203968.5909366574 -19022.624069314817
164324.28574167032 205729.7499214764 -21116.47451514844
163346.3814861291 206827.59409874812 -18580.42058727978
167374.0430966421 202884.55749083558 -20719.54182535793
166874.3335682275 207015.0545585783 -20623.1410565332
162730.7434647945 202094.6592777683 -16850.69467765446
162533.0490670683 205033.5311240074 -16424.777687072758
162497.7668202287 207957.8825653239 -15948.089539923769
168587.86050515057 203329.757439666 -15873.7768366703
165657.1299970265 204210.5482884986 -18111.56047318309
164284.9792076188 208557.5608390632 -20650.002486428188
164401.61521491501 211287.19981210632 -20119.84846616508
164492.67299147559 213811.69537594452 -19147.04981190574
167038.8808083388 211458.8970665128 -20375.89749371182
167723.0271456852 215037.8178503141 -19137.90563563316
163329.07869851938 209729.6783721943 -18013.54786539043
162623.04451501838 210868.1125665893 -15374.9353634674
163422.4825580647 212508.7696829407 -17214.7733851405
163710.9801392451 214723.5201539027 -16641.250929587317
166813.7319765666 208770.7004120056 -17629.370074398492
166482.8555013406 212619.37014784358 -17253.92091793221
173903.8502053906 203260.5304973951 -19265.42307477241
170526.5768897194 201865.03539073688 -18785.293690232378
169942.6817156549 205226.800970778 -18715.92698181308
177648.9210001991 203517.18256623452 -19901.08402665345
174640.77269594072 206310.8457571423 -19786.51947640572
178148.92291397168 208238.63382781149 -18880.594005349958
173354.7756193857 206214.9144561718 -17142.94870387961
170175.6031259961 206575.5615785192 -15471.23567771817
176688.922217427 204209.6137189073 -16051.66854731106
176906.3803602794 207628.5030753515 -16170.945068069968
170920.0228798409 208528.0918972472 -18340.57019585207
169892.6253587648 211611.5961540903 -18208.59863512128
174336.17356337272 210226.1067268823 -18677.962214686868
178365.0576299951 211798.6618446965 -18301.80573029892
174398.6835227551 213631.7903763159 -20548.216464060923
172541.3776772269 211660.384668538 -15651.1415316489
172421.9912386025 214600.6265587174 -17905.3190943691
176096.88870805802 213879.9413727365 -15974.220875925621
167870.93792823172 217221.4174258936 -24779.31968714912
169622.8796231044 219069.5729664664 -26207.53638121502
171854.6811243767 215679.2571138323 -26865.501167792212
172417.34470298557 219686.5869805831 -25314.23084715837
166990.1469442345 217816.3629578448 -22229.88005495117
168495.09068887282 219845.947208358 -23606.601657390118
167604.64981811738 220419.961062934 -20936.84370878904
171201.80063097228 216579.1026284812 -23648.48492945276
170281.1570498397 221707.59977331728 -25015.05576131014
171239.66072449888 224152.7433067474 -23632.12310819592
