1428
240.668 231.788 -43.0314
241.492 231.531 -43.1247
241.594 230.668 -42.048
240.214 231.552 -42.0044
240.593 232.337 -43.0261
241.403 232.289 -43.1304
239.984 232.854 -41.983
242.419 231.465 -43.0054
243.389 230.848 -41.9212
242.236 232.043 -43.0278
241.377 233.094 -42.0728
242.739 232.273 -42.0176
240.695 230.153 -40.7933
238.951 231.011 -40.0203
238.339 233.029 -40.4451
243.747 229.326 -41.1289
242.322 229.57 -41.206
241.662 229.009 -39.8213
239.774 233.988 -41.2081
240.726 234.005 -41.2418
238.751 234.76 -39.8158
242.083 233.617 -40.8458
243.737 232.914 -40.1286
241.074 234.539 -39.8795
244.973 230.113 -41.1037
245.075 229.178 -40.9031
244.506 231.407 -40.7945
246.186 230.405 -39.8383
244.048 228.042 -39.5967
246.281 228.288 -39.8009
241.401 228.116 -37.5877
239.505 229.076 -37.4746
239.993 229.615 -39.2142
243.275 227.214 -37.6962
246.904 226.293 -38.785
245.245 226.747 -38.7076
244.823 226.109 -37.2662
245.512 231.975 -39.2561
248.945 227.718 -38.9137
249.268 225.393 -38.6704
248.119 229.479 -38.8343
247.268 231.065 -38.3018
249.004 230.203 -37.2822
246.412 232.427 -37.4647
237.92 230.182 -37.8037
235.771 231.209 -37.4647
236.837 231.829 -39.0531
235.836 233.372 -39.3245
235.89 235.502 -39.1245
242.668 234.161 -39.2649
244.584 233.615 -37.8302
243.051 234.703 -37.4896
236.768 236.533 -38.1173
238.736 236.271 -37.6975
241.057 235.549 -37.594
252.617 221.564 -38.0277
253.571 221.498 -38.0793
254.542 220.415 -37.1647
252.349 220.504 -36.8505
251.855 222.96 -38.3898
253.386 222.759 -38.2517
251.252 222.022 -37.6377
254.667 222.513 -37.3602
249.555 222.798 -37.0593
250.237 223.671 -38.263
251.588 225.048 -38.4902
253.129 224.201 -38.1272
254.13 224.755 -36.9112
255.053 217.94 -36.1174
253.424 218.726 -36.0209
252.978 218.005 -34.5684
251.662 219.499 -34.7804
250.222 220.757 -34.6965
250.679 221.289 -36.3446
256.859 219.959 -36.2825
256.975 217.789 -36.112
256.255 222.133 -36.2426
255.65 223.712 -36.0579
248.537 224.347 -37.8192
246.798 224.944 -37.224
250.808 226.814 -38.3732
252.545 225.836 -37.692
251.674 227.579 -37.0981
248.856 222.101 -34.8736
247.314 223.284 -34.792
247.868 223.64 -36.4728
253.267 226.49 -36.3728
254.944 225.482 -34.7884
256.247 224.058 -34.5392
253.747 226.95 -34.704
245.925 224.497 -35.152
244.039 225.696 -35.0214
242.85 226.751 -35.9707
241.243 227.381 -35.0495
249.941 228.547 -37.9147
250.662 229.205 -36.4837
252.382 228.254 -34.8761
251.105 229.638 -34.7519
238.824 228.648 -35.0247
237.507 229.617 -35.9752
235.779 230.118 -34.9708
247.956 231.681 -36.5849
249.665 230.868 -34.922
248.25 232.18 -34.7724
234.896 232.43 -38.3584
233.044 232.769 -37.9678
233.233 234.039 -38.9213
233.192 235.654 -39.0898
233.214 230.917 -34.7595
233.399 231.682 -36.734
244.953 234.126 -35.9811
246.442 233.449 -34.9739
243.709 235.128 -35.0217
228.951 234.699 -38.4044
230.851 234.379 -38.6069
230.619 233.061 -37.3842
228.004 233.94 -37.3512
228.098 235.859 -38.663
230.662 235.808 -38.9487
227.13 235.072 -38.066
225.439 235.445 -37.6453
225.879 236.344 -38.3549
225.931 237.339 -38.1927
228.108 237.258 -38.3958
230.561 237.19 -38.52
232.942 237.043 -38.5322
227.844 232.795 -35.6218
225.498 233.181 -34.6799
225.654 234.299 -36.592
229.696 232.422 -36.0058
231.551 232.041 -36.3913
230.661 231.58 -34.7759
234.848 236.817 -38.4489
235.613 237.587 -37.1647
237.57 237.285 -36.6331
239.439 236.842 -35.8851
241.242 236.332 -35.0165
238.239 237.75 -34.7688
224.464 236.604 -37.9388
223.452 236.11 -36.8134
224.506 237.261 -37.8929
223.577 237.64 -36.7946
225.659 238.194 -37.1596
228.033 238.337 -37.3177
223.955 234.85 -36.1389
223.075 234.32 -34.5639
222.275 235.526 -35.3728
220.672 236.283 -34.2998
221.843 236.647 -35.8379
221.897 237.547 -35.8531
220.777 238.225 -34.3777
223.099 238.799 -35.2911
225.461 239.166 -35.6521
227.959 239.297 -35.7679
230.549 238.306 -37.3524
230.508 239.27 -35.7349
233.067 238.101 -37.2731
233.022 239.091 -35.4908
235.595 238.727 -34.7323
255.978 216.419 -35.5474
257.254 216.131 -35.5349
257.422 214.684 -34.2075
255.657 215.552 -34.3244
254.375 216.851 -34.6786
258.466 216.113 -35.2762
259.359 215.035 -34.0197
258.469 217.467 -35.5064
258.214 218.976 -35.5901
256.651 213.808 -32.9103
254.959 214.613 -32.2378
253.946 216.177 -33.1644
259.091 213.531 -33.3527
258.065 213.411 -33.3261
257.608 212.367 -31.915
252.606 217.166 -32.3462
259.728 217.218 -34.0454
258.941 219.541 -34.3124
260.185 213.916 -32.8458
259.623 212.489 -32.175
260.575 215.214 -33.2061
261.197 214.436 -31.8733
260.666 216.264 -33.2011
260.539 217.876 -32.2653
261.196 216.372 -31.8488
259.811 219.685 -32.1705
251.185 218.894 -32.6101
249.773 220.272 -32.4558
257.844 220.594 -35.2087
257.434 222.22 -34.5317
258.537 221.118 -33.7517
258.942 221.435 -32.0561
248.372 221.641 -32.6396
246.659 222.966 -32.4106
257.838 222.951 -32.2906
256.624 224.585 -32.3583
245.572 224.102 -33.3362
244.153 224.839 -32.3559
255.374 225.971 -32.6211
254.162 227.382 -32.4651
242.333 226.041 -32.1558
242.515 226.356 -34.1144
252.817 228.681 -32.6608
251.522 230.022 -32.4785
238.774 228.152 -32.3417
236.985 228.962 -32.1449
237.178 229.204 -34.0876
240.687 227.133 -32.3481
250.117 231.227 -32.6539
248.725 232.451 -32.406
230.594 230.967 -32.2653
228.242 231.36 -32.074
228.302 231.899 -34.1126
232.986 230.462 -32.3107
235.197 229.784 -32.3238
245.278 234.512 -34.0873
247.061 233.668 -32.3444
245.505 234.74 -32.1479
222.673 233.471 -32.3243
220.824 234.402 -32.0905
221.421 234.933 -33.7589
224.584 232.639 -32.4897
226.606 232.22 -33.6876
226.175 231.865 -32.0381
239.944 237.259 -34.018
241.862 236.591 -32.3334
243.788 235.624 -32.3391
240.184 237.502 -32.1118
219.467 235.567 -32.2855
217.863 236.764 -31.7696
219.066 236.963 -33.318
219.108 237.9 -33.4476
217.948 238.445 -32.1972
219.513 238.998 -32.983
221.223 239.502 -33.5188
223.03 239.856 -33.7989
220.174 240.117 -32.0103
225.382 240.084 -33.9495
227.907 240.154 -33.9973
230.416 240.1 -33.9655
232.708 239.922 -33.8334
234.406 239.639 -33.5864
236.382 239.142 -32.2043
238.384 238.282 -32.2462
234.656 239.935 -31.901
259.733 210.79 -30.8727
258.393 210.847 -30.7776
257.839 209.779 -29.1178
256.957 211.313 -30.2564
255.549 212.059 -29.4367
255.994 212.947 -31.2832
261.08 212.4 -31.1239
260.871 210.911 -30.4728
254.272 213.819 -29.8362
252.967 215.282 -29.5305
253.469 215.662 -31.421
261.025 218.19 -30.5777
261.826 216.868 -29.5951
260.509 219.764 -29.6985
262.18 214.429 -29.6838
262.079 212.12 -29.4132
251.585 217.166 -29.7104
250.699 218.629 -30.7066
249.298 219.776 -29.7487
259.306 221.806 -29.735
248.165 221.184 -30.7086
246.807 222.08 -29.694
258.138 223.43 -29.9851
256.844 225.235 -29.7997
245.115 223.429 -29.4791
245.276 223.729 -31.4454
255.629 226.359 -30.7385
254.598 227.843 -29.7618
243.666 224.673 -29.6671
242.079 225.874 -29.6794
240.446 226.98 -29.7314
238.666 227.953 -29.733
253.142 228.998 -30.7356
251.975 230.419 -29.7595
236.853 228.814 -29.6936
234.982 229.617 -29.7308
232.853 230.241 -29.7336
250.491 231.424 -30.7304
249.358 232.518 -29.752
228.012 231.05 -29.6634
225.426 231.594 -29.685
224.119 232.28 -30.7249
230.492 230.675 -29.7126
222.391 232.755 -29.9344
247.423 233.811 -29.7346
245.685 234.893 -29.6951
219.989 233.873 -29.7233
218.841 234.979 -30.6262
217.194 235.598 -29.717
242.092 236.745 -29.7351
243.91 235.829 -29.7355
240.34 237.656 -29.6844
215.052 236.888 -29.1423
216.209 237.369 -30.742
216.088 238.531 -30.905
216.196 239.61 -30.5632
217.84 239.843 -31.2045
236.656 239.347 -29.6833
238.529 238.505 -29.7036
234.799 240.129 -29.6031
222.719 240.619 -31.9848
225.279 240.796 -31.959
217.475 240.852 -29.5819
219.98 241.151 -29.8783
222.568 241.35 -29.8405
225.203 241.377 -29.6374
227.871 240.792 -31.9507
227.86 241.23 -29.605
230.392 240.678 -31.9318
230.401 241.021 -29.5941
232.702 240.418 -31.8964
232.741 240.687 -29.5867
259.778 209.499 -29.4122
261.437 209.946 -28.9422
259.917 208.079 -28.0928
258.67 208.331 -28.0447
258.32 207.553 -26.5116
257.113 208.823 -26.9798
255.793 210.079 -26.7505
256.327 210.56 -28.5169
261.111 208.306 -27.9182
262.8 209.534 -26.7745
261.716 207.367 -26.249
263.112 211.96 -27.4603
263.124 214.296 -27.5069
254.486 211.931 -26.9578
253.779 213.417 -27.9671
252.683 214.534 -27.0294
262.804 216.659 -26.7969
251.363 216.451 -27.0677
250.138 217.93 -26.8228
250.333 218.292 -28.7835
261.447 218.515 -28.7361
261.812 218.775 -26.7787
260.731 220.484 -27.0711
259.485 222.491 -27.0861
248.932 219.378 -26.9549
247.613 220.677 -26.7876
247.883 220.841 -28.7692
258.458 223.672 -28.0423
257.691 225.054 -27.0298
246.321 221.982 -26.9874
244.868 223.294 -26.9996
243.434 224.576 -27.0545
241.933 225.796 -27.0739
255.979 226.653 -28.8063
256.363 226.773 -26.7983
240.341 226.912 -27.0907
238.605 227.879 -27.0929
253.471 229.323 -28.7881
255.024 228.192 -26.9455
253.723 229.571 -26.7773
236.794 228.75 -27.0858
234.907 229.548 -27.0935
232.797 230.146 -27.0943
250.772 231.7 -28.7902
252.307 230.799 -26.9451
250.877 231.968 -26.7958
225.4 231.196 -27.0116
222.95 231.722 -26.8434
223.558 231.951 -28.8453
227.938 230.823 -27.0592
230.441 230.529 -27.0846
247.511 233.995 -27.076
249.283 232.953 -27.0194
245.76 235.003 -27.0862
219.881 232.978 -26.9901
217.363 234.078 -26.8422
218.152 234.471 -28.8018
221.716 232.431 -27.9434
242.184 236.822 -27.1156
243.975 235.927 -27.1054
240.424 237.729 -27.0952
214.564 238.591 -29.5078
215.053 240.219 -29.1468
214.554 235.661 -27.0526
212.414 236.816 -26.5984
213.227 237.413 -28.129
212.586 238.659 -28.2375
216.337 235.071 -27.9152
212.754 240.083 -28.0062
236.753 239.432 -27.0797
238.607 238.592 -27.0896
234.862 240.222 -27.059
212.507 241.278 -26.5251
214.871 241.578 -27.409
217.33 241.877 -27.7645
219.863 242.028 -27.8662
222.418 242.061 -27.6745
225.09 241.989 -26.9497
227.894 241.574 -27.0433
230.432 241.231 -27.0538
232.774 240.823 -27.0527
259.967 206.83 -26.3569
259.232 206.075 -24.9503
257.649 206.661 -24.2521
256.705 208.188 -25.2328
261.399 206.018 -25.2801
260.523 205.807 -25.3308
260.085 205.063 -23.9618
255.499 209.212 -24.327
262.891 206.86 -24.2749
261.747 205.38 -23.867
263.4 208.547 -25.0821
263.792 210.29 -25.6013
264.206 209.47 -23.954
263.984 212.015 -25.7739
254.182 211.182 -24.3737
253.062 212.791 -24.1644
253.368 213.062 -26.0779
263.951 214.024 -25.7696
263.704 215.591 -25.567
252.075 214.491 -24.4024
251.068 216.135 -24.6474
249.96 217.58 -24.402
263.102 217.462 -24.2191
263.978 215.845 -23.8707
262.056 219.259 -24.3604
248.728 219.114 -24.3689
247.429 220.536 -24.3315
261.025 220.819 -24.6406
260.033 222.466 -24.406
246.11 221.902 -24.3765
244.73 223.231 -24.3939
258.769 223.913 -26.1059
259.01 224.063 -24.1416
243.332 224.533 -24.4122
241.869 225.765 -24.4215
257.844 225.499 -24.3155
256.568 226.998 -24.3134
240.3 226.886 -24.4273
238.58 227.854 -24.4282
255.239 228.4 -24.345
253.892 229.747 -24.3184
236.771 228.728 -24.4271
234.883 229.522 -24.4288
232.778 230.108 -24.4281
252.469 230.994 -24.3489
250.957 232.139 -24.3312
223.06 231.34 -24.2724
221.066 231.877 -24.0845
221.247 232.111 -26.0076
225.411 230.947 -24.3708
227.919 230.688 -24.4083
230.423 230.459 -24.4229
247.54 234.107 -24.4179
249.294 233.137 -24.3878
245.789 235.083 -24.4353
217.036 233.503 -24.2661
214.733 234.304 -24.1432
215.517 234.617 -26.0566
219.224 232.657 -24.2848
242.245 236.882 -24.5133
244.004 236.006 -24.4658
240.505 237.772 -24.4646
211.761 238.047 -27.1762
210.735 238.727 -26.2524
211.416 239.118 -27.4993
211.513 239.885 -27.4215
212.053 235.775 -24.3981
210.357 237.016 -23.9874
211.028 237.469 -25.7265
213.736 235.184 -25.2401
236.799 239.469 -24.4286
238.668 238.632 -24.439
234.895 240.269 -24.4224
210.962 240.252 -26.1663
209.377 238.741 -23.9217
209.786 240.852 -23.8268
211.436 241.695 -24.8532
213.175 242.29 -25.5094
214.955 242.568 -25.7828
212.367 242.643 -23.8645
217.294 242.754 -25.9353
219.762 242.806 -25.9662
222.09 242.734 -25.8707
223.863 242.575 -25.6637
225.971 242.29 -24.537
228.125 241.838 -24.4615
224.276 242.833 -23.9806
230.51 241.389 -24.4353
232.809 240.908 -24.4239
260.237 203.54 -21.9137
258.25 203.86 -21.3105
258.63 205.118 -23.2514
262.362 204.086 -21.5642
263.249 205.852 -22.4805
263.89 207.651 -23.2861
264.235 206.828 -21.4194
256.989 205.735 -21.8042
255.818 207.225 -21.5099
256.265 207.667 -23.3995
254.799 209.061 -21.7267
253.808 210.833 -21.9673
252.747 212.482 -21.7312
264.537 211.803 -23.8614
264.444 213.979 -23.8433
264.8 209.273 -21.5455
264.975 211.703 -21.5332
264.761 213.991 -21.5345
251.54 214.496 -21.7235
250.846 215.924 -22.6997
264.183 216.017 -21.5613
249.911 217.068 -21.7232
263.276 217.863 -21.6558
262.141 219.86 -21.7037
248.614 218.897 -21.7241
247.331 220.439 -21.7212
261.241 221.031 -22.6903
260.529 222.384 -21.7091
246.023 221.855 -21.733
244.671 223.203 -21.7406
259.238 224.171 -21.6591
243.292 224.515 -21.7472
241.842 225.753 -21.7524
257.969 225.69 -21.6974
256.669 227.13 -21.7096
240.282 226.875 -21.7564
238.568 227.842 -21.7558
255.331 228.502 -21.7196
253.969 229.83 -21.7166
236.76 228.717 -21.7557
234.873 229.51 -21.757
232.771 230.09 -21.7543
252.535 231.077 -21.7227
250.995 232.215 -21.7222
223.055 231.172 -21.6891
220.954 231.722 -21.644
218.981 232.445 -21.6804
225.408 230.829 -21.7255
216.851 233.154 -21.6666
227.913 230.624 -21.7426
230.417 230.427 -21.75
247.555 234.175 -21.7499
249.309 233.213 -21.737
245.799 235.173 -21.7687
214.559 233.8 -21.5927
212.226 234.52 -21.4453
212.953 234.775 -23.3722
242.33 236.968 -22.0412
244.001 236.143 -21.8286
240.682 237.816 -21.8298
211.168 235.45 -22.5149
209.417 236.308 -21.5709
208.562 237.88 -22.2869
207.255 238.667 -21.0924
208.145 239.231 -22.6722
208.271 240.235 -22.6115
236.848 239.501 -21.7613
238.768 238.67 -21.7739
234.927 240.313 -21.7577
207.353 240.463 -20.9404
208.807 241.587 -21.5834
210.68 242.153 -23.1108
210.211 242.613 -21.3515
226.347 242.504 -22.6613
228.099 242.181 -21.7929
224.952 243.045 -21.618
230.567 241.57 -21.7808
232.848 240.997 -21.7633
214.752 243.176 -23.8626
217.238 243.37 -23.8922
212.249 243.274 -21.4974
214.661 243.665 -21.5572
217.213 243.793 -21.5516
219.759 243.366 -23.9006
219.808 243.729 -21.5523
222.162 243.195 -23.896
222.368 243.501 -21.5597
260.255 201.45 -20.4485
258.702 201.574 -20.1134
257.629 201.171 -18.6325
256.887 203.543 -19.1061
256.4 205.26 -19.9943
261.739 202.148 -20.3321
255.4 206.472 -19.016
263.102 203.066 -19.7231
262.504 201.066 -18.7015
263.706 204.969 -20.6268
264.212 204.179 -18.7182
254.178 208.956 -19.0511
253.541 210.553 -20.0188
264.995 206.665 -18.8779
265.367 209.171 -19.0493
265.381 211.645 -18.9597
252.641 211.805 -19.0343
265 214.006 -18.9831
251.468 213.876 -18.9804
250.462 215.527 -18.7744
250.614 215.691 -20.7566
264.34 216.087 -19.0045
263.458 217.959 -19.0193
262.499 219.775 -18.9775
249.55 217.163 -18.9857
248.466 218.859 -19.0441
247.263 220.405 -19.0591
261.465 221.25 -20.748
261.596 221.378 -18.7719
245.983 221.837 -19.0657
244.644 223.193 -19.0697
260.539 222.822 -18.9787
259.316 224.354 -19.0261
243.267 224.507 -19.075
241.816 225.743 -19.0844
258.026 225.799 -19.0491
256.709 227.194 -19.0578
240.262 226.86 -19.096
238.55 227.823 -19.0896
255.364 228.544 -19.0617
253.996 229.862 -19.062
236.74 228.699 -19.0896
234.86 229.492 -19.0962
232.766 230.071 -19.0848
252.558 231.106 -19.0633
251.011 232.242 -19.0638
223.042 231.107 -19.0519
220.906 231.65 -19.0407
218.896 232.338 -19.0451
225.405 230.783 -19.063
216.77 232.964 -19.0346
227.91 230.596 -19.0697
230.414 230.407 -19.0755
247.573 234.228 -19.0696
249.321 233.246 -19.0671
245.809 235.294 -19.071
212.174 234.017 -18.9125
210.158 234.682 -18.7701
210.529 235.061 -20.6409
214.48 233.481 -18.9952
242.443 237.083 -20.0523
243.856 236.454 -19.0718
241.141 237.829 -19.0756
208.643 235.676 -19.1068
207.021 236.816 -18.6922
207.775 237.208 -20.5321
236.918 239.554 -19.0967
238.925 238.732 -19.085
234.982 240.376 -19.0921
206.484 238.064 -19.506
205.697 238.813 -18.4508
206.182 239.185 -19.9435
206.25 240.046 -19.9053
205.87 240.356 -18.4528
206.99 241.521 -18.9515
208.325 242.114 -19.8794
209.463 243.022 -18.9397
226.716 242.746 -20.77
228.726 242.327 -19.2797
230.741 241.759 -19.1449
227.022 242.92 -18.8498
232.924 241.112 -19.1013
212.022 243.777 -18.9615
214.578 244.104 -19.0828
217.184 244.164 -18.9899
219.839 244.009 -19.0006
222.428 243.761 -18.9987
224.9 243.388 -18.9732
258.327 189.422 -18.8791
258.914 189.447 -18.8918
259.201 188.765 -17.7971
257.79 188.671 -17.7753
258.346 190.499 -19.0574
259.144 190.507 -19.0958
257.478 190.591 -17.999
260.035 190.614 -18.0944
258.549 191.665 -19.0593
259.167 191.668 -19.1448
258.192 192.812 -18.1482
259.744 192.815 -18.435
258.841 187.558 -17.0304
258.094 187.489 -17.0259
257.736 186.907 -15.6879
257.198 187.808 -16.551
256.37 188.371 -15.6968
256.806 188.859 -17.0542
256.68 189.887 -17.1279
260.245 188.305 -16.0972
259.151 187.089 -15.6936
260.706 189.808 -16.8137
256.166 190.423 -15.8041
256.762 191.38 -16.8547
256.886 193.254 -16.4085
261.033 191.508 -17.2832
261.587 190.772 -15.8409
261.154 193.297 -17.4266
258.428 195.772 -17.964
259.954 195.726 -18.3564
257.211 195.839 -16.4737
261.385 195.761 -17.5303
258.888 200.031 -19.5943
259.727 199.959 -19.8022
260.16 198.599 -18.9187
258.42 198.764 -18.4383
260.975 200.335 -19.4643
257.158 198.414 -16.6052
256.642 200.878 -16.6111
261.758 198.376 -17.912
256.358 202.777 -17.3099
255.577 203.865 -16.1893
255.924 204.636 -18.1223
263.418 200.245 -16.4365
262.833 198.1 -16.1113
263.75 202.36 -17.893
264.293 201.936 -16.0926
265.038 204.06 -16.2081
265.819 206.614 -16.1251
265.993 209.114 -16.6184
254.812 206.215 -16.3376
253.936 208.344 -16.3723
253.071 210.057 -16.1297
253.273 210.273 -18.0848
265.896 211.562 -16.0969
265.22 214.053 -16.3013
252.256 211.816 -16.3094
251.301 213.682 -16.3344
250.336 215.428 -16.3019
264.451 216.133 -16.3582
249.402 217.157 -16.352
248.385 218.848 -16.3792
263.56 217.995 -16.3689
262.639 219.785 -16.3497
247.227 220.396 -16.389
261.679 221.46 -16.3049
245.964 221.831 -16.3928
244.623 223.188 -16.3966
260.575 222.986 -16.3506
259.347 224.453 -16.3749
243.228 224.498 -16.4062
241.755 225.726 -16.4329
258.046 225.851 -16.3859
256.721 227.219 -16.3901
240.212 226.823 -16.4816
238.508 227.769 -16.4449
255.372 228.556 -16.3916
254.002 229.869 -16.392
236.68 228.654 -16.4449
234.825 229.448 -16.4817
232.763 230.026 -16.433
252.563 231.113 -16.3922
251.017 232.249 -16.3923
223.036 231.087 -16.389
220.891 231.625 -16.3862
218.869 232.294 -16.3856
225.403 230.767 -16.3923
216.733 232.876 -16.38
227.91 230.58 -16.3963
230.414 230.379 -16.4063
247.619 234.251 -16.3891
249.336 233.258 -16.3921
245.951 235.331 -16.3745
211.996 233.757 -16.3267
209.56 234.421 -16.2782
208.306 235.246 -17.2244
214.411 233.315 -16.3625
206.961 235.923 -16.1954
242.62 237.264 -18.0933
244.284 236.433 -16.317
242.728 237.382 -16.1075
205.63 237.342 -15.9527
205.925 237.584 -17.7797
236.976 239.652 -16.4768
238.934 238.891 -16.4135
235.074 240.478 -16.4421
240.968 238.138 -16.3287
205.116 238.973 -16.0683
205.387 240.867 -16.1217
206.359 241.802 -17.1038
207.761 242.53 -18.0383
207.166 242.775 -16.0761
229.03 242.494 -17.3481
230.707 242.09 -16.4504
227.642 243.068 -16.3332
233.006 241.289 -16.4366
209.37 243.665 -16.2462
211.982 244.451 -16.1487
214.538 244.65 -16.6508
217.129 244.66 -16.1795
219.907 244.294 -16.3528
222.514 243.975 -16.3711
225.072 243.606 -16.354
257.836 186.112 -13.4778
256.448 186.692 -13.228
256.715 187.134 -14.9899
259.657 186.431 -13.4358
260.576 187.556 -14.3767
261.24 189.041 -15.1925
261.585 188.391 -13.373
255.731 188.297 -13.4249
255.513 190.521 -13.491
256.158 192.24 -15.3188
255.677 193.125 -13.5717
256.295 194.095 -14.9329
256.387 195.971 -14.8116
262.076 193.188 -15.8389
262.413 195.664 -15.9261
262.38 190.659 -13.5631
262.835 193.115 -13.8019
263.182 195.579 -13.9533
256.355 198.204 -14.8495
263.667 198.034 -13.9897
256.182 200.053 -15.0075
263.942 199.832 -14.7098
255.53 201.028 -13.6363
255.895 201.936 -15.4809
264.742 201.127 -13.7072
265.569 203.596 -13.753
266.214 205.67 -13.808
255.015 203.676 -13.6544
254.377 206.077 -13.7498
253.694 208.054 -13.9544
266.504 207.622 -14.8499
266.766 207.193 -13.2426
266.601 209.065 -14.9445
252.913 209.782 -13.712
266.503 210.48 -14.8171
252.087 211.698 -13.7014
251.206 213.591 -13.7059
266.068 212.303 -13.5197
266.689 210.669 -13.1591
265.322 214.283 -13.6633
250.277 215.383 -13.7029
264.499 216.205 -13.7092
249.355 217.149 -13.7149
248.362 218.851 -13.7235
263.595 218.016 -13.7187
262.68 219.796 -13.7145
247.219 220.401 -13.728
261.706 221.491 -13.7058
245.957 221.836 -13.7298
244.595 223.187 -13.7338
260.584 223.036 -13.7156
259.349 224.483 -13.7238
243.146 224.489 -13.7478
241.59 225.71 -13.8045
258.043 225.862 -13.7274
256.716 227.218 -13.7292
240.107 226.745 -14.0139
238.441 227.633 -13.8224
255.365 228.55 -13.7294
253.995 229.862 -13.7299
236.515 228.566 -13.8225
234.753 229.354 -14.0139
232.793 229.918 -13.804
252.556 231.104 -13.7298
251.013 232.241 -13.7301
223.036 231.092 -13.7288
220.89 231.628 -13.7282
218.866 232.29 -13.7263
225.402 230.769 -13.7295
216.724 232.848 -13.7231
227.909 230.566 -13.7327
230.421 230.326 -13.7472
247.645 234.251 -13.7257
249.34 233.251 -13.7289
246.03 235.343 -13.7172
209.698 234.06 -13.6178
207.875 234.727 -13.3991
208.022 234.905 -15.325
211.981 233.582 -13.6887
214.391 233.237 -13.7142
244.438 236.455 -13.6916
242.798 237.471 -13.6485
206.452 235.795 -13.56
205.242 237.227 -13.5162
204.577 238.965 -13.4551
204.714 240.8 -13.422
237.069 239.783 -14.0095
238.913 239.075 -13.7918
235.296 240.6 -13.8166
240.943 238.312 -13.7095
205.867 242.085 -15.2253
205.579 242.268 -13.3106
229.37 242.715 -15.4349
231.331 242.21 -13.927
233.244 241.478 -13.7991
229.668 242.872 -13.5095
207.106 243.283 -13.5446
209.135 244.13 -13.6723
211.115 244.787 -13.7772
213.033 245.096 -14.8602
214.523 245.212 -14.9673
212.674 245.342 -13.2366
216.025 245.165 -14.8717
218.008 244.954 -13.8313
220.156 244.562 -13.7992
216.409 245.4 -13.2554
222.607 244.186 -13.7471
225.132 243.82 -13.7087
227.577 243.385 -13.6537
257.707 185.24 -11.1932
256.048 185.947 -10.6735
255.179 188.061 -10.978
259.53 185.377 -10.692
254.955 190.442 -10.95
260.915 186.98 -12.5518
261.18 186.626 -10.6805
255.086 193.081 -10.9589
262.304 188.357 -10.9096
263.203 190.641 -11.0518
263.545 193.123 -11.7352
255.682 195.793 -13.0684
255.177 195.749 -10.8317
263.805 195.446 -12.0668
255.654 198.36 -13.0856
264.051 197.302 -12.3243
264.386 199.188 -12.8878
264.718 198.338 -10.9993
255.173 198.389 -10.8429
255.031 201.031 -11.0035
254.641 203.636 -11.0545
253.976 206.237 -11.076
265.405 201.023 -11.0973
266.153 203.503 -11.2586
266.497 205.24 -12.0121
253.516 207.881 -12.0175
266.97 206.486 -10.974
252.875 209.278 -11.0787
266.931 208.956 -13.1311
267.108 208.757 -10.9106
266.787 210.714 -10.9277
252.034 211.543 -11.0915
251.194 213.548 -11.0989
266.115 212.517 -11.0233
265.328 214.387 -11.0814
250.289 215.38 -11.1057
264.48 216.229 -11.1048
249.38 217.167 -11.1071
248.396 218.882 -11.1074
263.564 218.005 -11.1067
262.65 219.779 -11.1085
247.252 220.435 -11.1118
261.677 221.477 -11.1101
245.981 221.867 -11.111
244.583 223.206 -11.112
260.551 223.019 -11.11
259.315 224.459 -11.1134
243.034 224.499 -11.1071
241.176 225.781 -11.1009
258.005 225.829 -11.1123
256.679 227.184 -11.1145
239.964 226.64 -12.0429
238.488 227.33 -11.0984
255.326 228.512 -11.1129
253.959 229.824 -11.1152
236.066 228.505 -11.0995
234.65 229.229 -12.0425
233.019 229.7 -11.0977
252.523 231.064 -11.114
250.987 232.201 -11.1161
223.042 231.138 -11.1127
220.906 231.672 -11.1137
218.888 232.336 -11.1071
225.4 230.811 -11.1095
216.737 232.888 -11.1041
227.904 230.584 -11.1068
230.441 230.276 -11.104
247.627 234.21 -11.1082
249.318 233.207 -11.1123
246.034 235.314 -11.1081
209.712 233.959 -11.0645
207.791 234.653 -11.0114
206.237 235.73 -11.0183
211.983 233.545 -11.0915
204.942 237.15 -10.9294
214.393 233.251 -11.1013
244.466 236.443 -11.0996
242.818 237.503 -11.0919
203.961 238.96 -10.5865
204.059 240.84 -10.5712
237.184 239.925 -12.0404
238.717 239.356 -11.0959
235.786 240.677 -11.0962
240.926 238.422 -11.0975
205.304 242.427 -10.8716
231.646 242.356 -11.9949
233.289 241.797 -11.0828
230.251 242.962 -11.028
207.005 243.558 -11.0048
209.176 244.544 -11.0385
210.776 245.011 -11.9277
212.13 245.519 -10.9434
218.395 245.169 -12.0227
220.157 244.91 -11.2769
217.071 245.595 -10.9769
222.627 244.416 -11.1388
225.192 243.976 -11.0988
227.725 243.543 -11.0684
214.533 245.553 -13.1545
214.572 245.773 -10.9132
257.563 184.352 -9.630140000000001
256.495 184.705 -9.50356
256.176 184.54 -8.01515
255.026 185.954 -8.155620000000001
254.492 187.945 -8.6805
258.688 184.422 -9.52129
254.449 190.245 -8.28219
260.082 185.145 -8.38086
258.828 184.241 -8.07286
261.509 186.46 -8.45964
262.831 188.273 -8.462569999999999
263.476 189.853 -9.21626
254.836 193.055 -8.47822
263.93 191.586 -9.755050000000001
264.072 190.935 -8.167059999999999
264.19 193.396 -10.0002
255.029 195.74 -8.497389999999999
264.432 195.734 -10.3237
255.066 198.39 -8.51376
254.95 201.004 -8.55799
254.624 203.517 -8.56724
265.17 198.377 -8.475020000000001
264.791 195.775 -8.270630000000001
265.879 201.097 -8.51018
266.357 202.903 -9.33324
254.048 205.817 -8.526350000000001
266.748 204.706 -10.1761
266.833 204.144 -8.34487
253.353 207.638 -8.351279999999999
253.352 207.698 -10.1425
267.138 206.453 -8.51871
267.14 208.684 -8.565
266.743 210.676 -8.590909999999999
252.751 209.496 -8.54932
252.083 211.597 -8.595190000000001
251.308 213.623 -8.60974
266.007 212.498 -8.59689
265.197 214.363 -8.62262
250.411 215.448 -8.638310000000001
264.352 216.173 -8.6412
249.525 217.243 -8.629189999999999
248.544 218.994 -8.619
263.414 217.914 -8.62369
262.505 219.707 -8.63467
247.376 220.545 -8.63649
261.553 221.399 -8.65
246.103 221.983 -8.627230000000001
244.68 223.291 -8.632400000000001
260.422 222.914 -8.63677
259.198 224.351 -8.64594
243.137 224.531 -8.5998
241.394 225.607 -8.55111
257.879 225.706 -8.63377
256.563 227.068 -8.64484
239.755 226.475 -8.35195
239.796 226.492 -10.153
255.202 228.385 -8.63406
253.848 229.706 -8.64654
236.181 228.337 -8.532260000000001
234.397 229.092 -8.34878
234.481 229.083 -10.1519
238.135 227.406 -8.524649999999999
252.412 230.933 -8.63796
250.904 232.073 -8.651300000000001
223.061 231.293 -8.636979999999999
220.961 231.816 -8.644019999999999
218.974 232.506 -8.614940000000001
225.398 230.978 -8.623100000000001
216.789 233.067 -8.609690000000001
227.876 230.744 -8.61036
230.336 230.412 -8.589560000000001
232.611 229.84 -8.533759999999999
247.521 234.06 -8.62115
249.238 233.059 -8.634919999999999
245.942 235.19 -8.638159999999999
209.726 234.056 -8.62528
207.802 234.718 -8.62435
206.234 235.759 -8.601509999999999
211.992 233.683 -8.619160000000001
204.89 237.027 -8.557079999999999
214.415 233.418 -8.6136
244.389 236.324 -8.63068
242.798 237.409 -8.64029
203.845 238.418 -8.38374
203.17 239.454 -8.06256
203.252 239.568 -9.399559999999999
203.28 240.315 -9.39561
237.356 240.078 -10.1513
239.095 239.213 -8.543150000000001
241.008 238.33 -8.61199
237.444 240.077 -8.35191
203.198 240.435 -8.061120000000001
203.96 241.387 -8.37852
205.201 242.583 -8.54142
231.901 242.525 -10.1276
233.703 241.749 -8.52087
235.69 240.856 -8.53247
231.981 242.554 -8.34545
206.858 243.585 -8.57578
208.746 244.472 -8.52679
210.515 245.204 -10.0958
210.437 245.227 -8.33813
218.913 245.384 -10.1817
220.738 245.022 -9.346
222.539 244.599 -8.541079999999999
219.469 245.441 -8.34665
225.21 243.999 -8.58493
227.73 243.567 -8.58517
230.066 243.109 -8.53654
212.332 245.68 -8.51036
214.628 245.881 -8.53485
217.066 245.773 -8.50924
257.483 184.036 -8.022069999999999
257.453 184.096 -6.36717
256.138 184.483 -6.36734
255.064 185.553 -6.25861
258.811 184.341 -6.40811
254.146 186.537 -6.02577
254.141 186.648 -7.12633
253.895 187.821 -7.23022
260.057 185.291 -6.40552
261.437 186.466 -6.46896
253.928 189.093 -7.15622
262.573 187.989 -6.3548
263.651 189.379 -7.56124
263.549 189.326 -6.20705
253.992 189.194 -6.00973
254.634 190.723 -6.22436
255.124 193.153 -6.33814
255.37 195.761 -6.37425
264.497 193.295 -8.14995
264.042 191.037 -6.27593
264.364 193.284 -6.26983
264.618 195.769 -6.29269
255.431 198.4 -6.3873
264.976 198.325 -6.32652
255.337 201.019 -6.39479
265.593 200.773 -6.29321
255.033 203.556 -6.3842
266.49 202.519 -7.62076
266.353 202.483 -6.20798
254.441 205.911 -6.3655
253.615 207.712 -6.44526
266.743 204.294 -6.3427
266.932 206.464 -6.41905
266.863 208.638 -6.47978
253.045 209.598 -6.44716
252.476 211.741 -6.42
266.46 210.542 -6.53212
251.725 213.904 -6.40992
265.604 212.247 -6.43119
264.797 214.21 -6.47788
250.744 215.636 -6.52696
264.017 215.992 -6.53622
249.928 217.424 -6.47269
248.954 219.315 -6.42092
262.995 217.63 -6.43601
262.106 219.532 -6.48734
247.684 220.822 -6.51064
261.243 221.206 -6.5562
246.445 222.318 -6.45152
244.956 223.572 -6.50845
260.074 222.612 -6.47816
258.91 224.08 -6.53704
243.455 224.868 -6.41137
241.584 225.876 -6.43653
257.538 225.37 -6.46672
256.278 226.784 -6.5331
239.866 226.708 -6.44554
238.254 227.733 -6.38326
236.282 228.605 -6.42514
254.865 228.044 -6.46761
253.575 229.417 -6.53799
234.474 229.351 -6.43716
232.71 230.254 -6.36699
230.379 230.877 -6.39398
252.109 230.584 -6.48008
250.708 231.763 -6.55686
223.095 231.7 -6.4962
221.101 232.164 -6.5371
219.246 232.967 -6.4099
225.405 231.432 -6.45061
216.925 233.559 -6.40749
227.889 231.217 -6.42162
247.203 233.65 -6.42835
249.053 232.66 -6.48657
245.68 234.877 -6.51915
209.763 234.432 -6.50701
207.929 234.998 -6.56637
206.485 236.044 -6.49258
212.013 234.127 -6.45495
205.096 237.163 -6.54962
214.465 233.899 -6.42605
244.104 235.973 -6.47149
242.645 237.112 -6.55068
204.079 238.451 -6.47859
203.32 239.459 -6.48178
238.991 238.833 -6.39697
240.929 237.958 -6.4749
237.368 239.828 -6.44687
203.34 240.424 -6.48355
204.159 241.345 -6.4851
205.305 242.441 -6.56062
233.612 241.424 -6.38488
235.597 240.591 -6.42866
231.925 242.322 -6.45235
206.913 243.284 -6.48707
208.83 244.12 -6.40634
210.494 244.99 -6.4568
221.114 245.107 -7.62984
222.859 244.202 -6.30924
225.273 243.609 -6.38198
221.148 244.935 -6.21089
227.738 243.212 -6.42331
230.02 242.839 -6.45139
212.389 245.436 -6.44916
214.646 245.613 -6.42261
217.042 245.563 -6.39498
219.308 245.328 -6.33683
257.456 184.649 -5.14144
256.31 184.798 -5.27239
255.648 186.019 -4.90767
258.638 184.753 -5.27445
254.482 186.67 -5.12049
259.48 186.015 -4.88656
261.053 186.822 -5.18174
253.85 187.8 -5.96995
254.353 187.828 -4.96155
254.41 189.095 -5.05026
261.84 188.498 -4.78827
263.128 189.478 -5.1158
255.543 190.246 -4.67682
256.103 193.054 -4.72818
263.37 191.027 -4.89852
263.56 193.267 -4.78293
256.346 195.742 -4.75178
263.741 195.792 -4.73646
256.412 198.411 -4.75724
264.042 198.457 -4.69728
256.342 201.076 -4.74722
264.66 201.356 -4.59462
256.076 203.764 -4.70841
265.883 202.637 -5.06387
255.45 206.658 -4.61382
266.052 204.287 -4.90331
266.137 206.463 -4.86967
254.158 207.944 -5.14702
266.091 208.641 -4.96662
253.877 209.651 -4.91822
253.464 211.965 -4.77078
265.921 210.302 -5.20219
252.718 214.713 -4.63523
264.634 211.496 -4.68797
263.9 213.988 -4.90497
251.308 215.948 -5.16497
263.458 215.686 -5.18218
250.827 217.668 -4.89187
249.901 220.149 -4.65078
262.036 216.85 -4.68055
261.216 219.291 -4.9228
248.198 221.298 -5.11317
260.722 220.896 -5.22393
247.248 223.115 -4.7401
245.432 224.072 -5.11503
259.265 221.875 -4.79299
258.423 223.616 -5.16714
244.287 225.776 -4.66083
241.822 226.722 -4.89053
256.738 224.577 -4.76587
255.8 226.305 -5.15929
240.143 227.221 -5.15097
238.967 228.639 -4.67179
236.467 229.447 -4.88341
254.073 227.243 -4.77037
253.112 228.931 -5.17032
234.739 229.887 -5.13402
233.466 231.256 -4.61809
230.586 231.933 -4.71558
251.373 229.778 -4.80275
250.395 231.244 -5.22676
223.081 232.548 -4.95
221.347 232.741 -5.18458
220.052 234.012 -4.63189
225.397 232.397 -4.82491
217.169 234.63 -4.7191
227.937 232.238 -4.76632
246.368 232.703 -4.67362
248.797 231.77 -4.92708
245.218 234.353 -5.13268
209.767 235.26 -4.99152
208.174 235.503 -5.26712
207.203 236.808 -4.87956
212.017 235.087 -4.84112
205.549 237.556 -5.28412
214.532 234.923 -4.77154
243.376 235.158 -4.78683
242.353 236.596 -5.22098
204.835 239.001 -5.0885
203.699 239.574 -5.4539
238.28 237.9 -4.67683
240.73 237.083 -4.92258
237.107 239.304 -5.15268
203.708 240.291 -5.45877
204.854 240.764 -5.10781
205.597 242.018 -5.3358
232.919 240.501 -4.67304
235.414 239.749 -4.89007
231.715 241.803 -5.16885
207.126 242.462 -5.00371
209.53 243.194 -4.71849
210.707 244.472 -5.18257
222.276 243.217 -4.59105
225.149 242.597 -4.71608
220.993 244.446 -5.06024
227.73 242.271 -4.80509
230.031 242.039 -4.9377
212.376 244.663 -4.94914
214.637 244.757 -4.83665
217.054 244.738 -4.82029
219.318 244.621 -4.88864
257.512 185.994 -4.50341
255.629 187.955 -4.42405
257.597 188.038 -4.01251
259.763 188.158 -4.1435
257.67 190.441 -3.87146
259.884 190.551 -3.74383
261.922 190.731 -4.13919
257.88 193.076 -3.82673
259.992 193.114 -3.58411
262.023 193.18 -3.90544
258.01 195.743 -3.81504
260.073 195.754 -3.52795
262.124 195.774 -3.82297
258.06 198.418 -3.80613
260.14 198.427 -3.49774
262.271 198.443 -3.77257
258.041 201.098 -3.78485
260.192 201.115 -3.4544
262.475 201.168 -3.68521
257.925 203.787 -3.73773
260.174 203.795 -3.3828
262.508 203.83 -3.50217
264.609 203.953 -4.061
257.715 206.513 -3.64936
260.113 206.472 -3.32726
262.501 206.46 -3.43359
264.617 206.458 -3.93844
255.449 209.316 -4.03507
257.644 209.188 -3.46308
260.069 209.135 -3.3
262.475 209.079 -3.50178
264.607 208.954 -4.09162
255.283 211.9 -3.81189
257.56 211.838 -3.37884
260.008 211.787 -3.35764
262.407 211.697 -3.74081
255.021 214.566 -3.68371
257.444 214.497 -3.36951
259.89 214.427 -3.49196
262.161 214.289 -4.03204
252.599 217.358 -4.0268
254.891 217.219 -3.50637
257.341 217.137 -3.41965
259.756 217.033 -3.7587
252.289 219.958 -3.76738
254.743 219.842 -3.46834
257.194 219.727 -3.58658
259.46 219.549 -4.08154
249.62 222.737 -3.97611
252.102 222.556 -3.5841
254.603 222.417 -3.60311
257.03 222.219 -4.00535
246.875 225.475 -3.99291
249.412 225.257 -3.64993
251.938 225.1 -3.64575
254.404 224.903 -4.01102
244.092 228.139 -3.82757
241.518 228.474 -4.06631
246.692 227.921 -3.65879
249.25 227.722 -3.68372
251.723 227.539 -4.03416
238.741 230.889 -3.79412
236.13 231.165 -4.03675
241.35 230.729 -3.61717
243.955 230.552 -3.64678
246.551 230.344 -3.84024
249.055 229.995 -4.11682
233.314 233.544 -3.6949
230.598 233.79 -3.74888
235.982 233.415 -3.55345
238.616 233.267 -3.5374
241.217 233.109 -3.64178
243.777 232.948 -4.00154
222.725 234.067 -4.05589
225.305 234.021 -3.85263
219.915 236.272 -3.65822
217.195 236.484 -3.73527
222.595 236.215 -3.48025
225.25 236.169 -3.39034
227.93 233.941 -3.78315
227.909 236.118 -3.36978
230.574 236.045 -3.3965
233.241 235.93 -3.46406
235.884 235.794 -3.56006
238.489 235.643 -3.79664
241.015 235.344 -4.09737
209.487 236.766 -4.17631
211.946 236.702 -3.89823
206.96 238.828 -4.28718
209.357 238.822 -3.76943
211.904 238.814 -3.4991
214.535 236.623 -3.79192
214.528 238.79 -3.38669
217.187 238.738 -3.34949
219.864 238.661 -3.34255
222.541 238.605 -3.34253
225.219 238.523 -3.3519
227.879 238.454 -3.39459
230.516 238.39 -3.51395
233.14 238.294 -3.76428
235.731 238.034 -4.04576
206.952 240.835 -4.34219
209.368 241.042 -3.90176
211.926 241.089 -3.56744
214.535 241.098 -3.42361
217.169 241.081 -3.40266
219.811 241.044 -3.47833
222.474 240.987 -3.65283
225.185 240.771 -3.74627
227.82 240.617 -3.84425
230.371 240.52 -4.06714
212.048 243.18 -4.09283
214.569 243.201 -3.885
217.129 243.192 -3.87169
219.671 243.165 -4.04019
