881
177.4417342146522 153.6054658306782 -10.10824792067836
233.4645187431982 202.4674828770053 -7.334181051307484
180.7221344536345 151.2539779394743 -7.465190972345591
233.9413526142279 192.3599873617815 -7.800561679780438
230.2879236216511 202.6275637586343 -7.526568719140867
232.6233408630087 197.2910614739843 -13.64444008064144
180.4661474134309 153.2444464494427 -12.86003376679641
198.7352155317879 151.9138553214295 -9.545299310818505
235.6824010262374 194.778409356773 -11.12102339138174
172.4904787025604 157.1789135129225 -9.554078168965797
232.4461134410939 195.8002731250492 -10.0763158226918
230.7289709664952 200.3219447689492 -9.898159091877829
232.7268022862293 199.9461302160032 -14.25072678265605
205.0943165186333 151.4661917055404 -7.115666151962073
190.0138355741561 152.2273047817654 -10.09437285301038
176.0818065167813 157.0496912590644 -7.284734315355813
174.0191387160681 154.6573475331756 -7.435206642319211
233.3786679796733 193.9528230028179 -10.68074510420636
174.9294098254695 155.3463830610704 -10.36922267102238
234.3301328930017 191.6456784913171 -9.734530300355907
236.3365510054314 192.7307452377651 -9.661035886342743
236.2328261766213 193.6160844332574 -7.260287807452167
208.5923160532517 154.2682242390286 -7.082693447997229
185.9765203221287 152.3810406099236 -10.14853950977642
182.2944305417206 152.8528675609493 -10.62135191341609
178.1305825996887 155.6745342373982 -9.795041235188281
234.7966343471915 192.6980988193255 -13.43049112794189
235.3103028631667 198.2457858504393 -7.440104615317632
232.5520686641977 193.6013602991968 -7.615306557961313
206.4232331367444 152.9950629096699 -8.077422208869445
187.9909160398815 152.2013959744977 -9.977847583696079
231.6165101661546 197.8258184524633 -10.42632966359703
176.0780958117598 153.0999862081026 -8.402552696253188
231.5328695772371 203.1951495104516 -9.19367911988194
192.5836157575192 151.9202627968012 -9.90462967493797
236.1352035635314 189.5828822884948 -9.019518913196404
230.1207506812187 201.8855213602556 -8.959940969052639
173.7121394714864 158.2906893290786 -7.010525615919978
179.1515358537594 151.6124144630528 -8.803138895353076
234.3831454424956 198.7577546856404 -10.48474493368189
231.6058151971327 197.1256256782351 -7.80724462154439
233.4758514577281 197.2316435990315 -6.948731024090466
232.2035963697161 200.6131496064605 -6.853724378904988
198.7280374466752 151.7121124987873 -7.188364604710102
177.1758384800996 154.2493744780782 -6.969998859935697
234.5742083143047 197.9467378313146 -12.43375617684652
234.6074989980243 196.4195514526541 -14.01499559869118
232.490960884044 198.776336590258 -17.49811369339806
232.9823949717791 192.9238153715331 -9.335190690240601
180.917181728429 151.8012885629381 -9.670845937963925
217.406954916153 159.1194912247512 -7.450900294539762
184.0601909380013 151.4681900226183 -7.234835928926432
170.8639769497026 158.9681334761431 -6.864080539685784
234.2787025067415 194.381469163781 -6.885777799767054
183.9859371733901 151.788254211738 -10.02469037393699
194.560541097156 151.7201997064124 -10.31551269195937
180.1070840019369 155.3982390009622 -8.807659180690404
236.0004340405713 189.2794876968618 -7.358082329439842
231.789484576012 195.9522653167415 -11.96927976444038
200.6670870892635 151.8274206753428 -9.742122965895911
232.2967579869902 195.0937318864819 -13.50155702759344
233.8812773765128 195.7362208672012 -16.57480963972512
231.9884529610454 200.0142487490427 -16.94780720204023
179.0473325351357 154.0729060099679 -12.10816157455742
183.3217472593085 154.4886917713315 -7.51463702966488
196.501987499447 151.8924272536779 -10.02189980329673
176.6067893809961 157.0396549843058 -9.24615496292629
231.7742885306614 201.1823851992898 -13.4961118743197
218.6739461824786 160.0433875670983 -7.305352726953261
219.7915373626433 161.3019268048418 -7.533791019604286
220.8189815903028 162.0892044908351 -7.490720772763338
211.081923539417 155.3346899972214 -7.773250210026569
177.692406312019 157.2753893111725 -7.269686947663565
182.1883213273498 154.3845614627637 -9.404692392598282
233.3395601056462 202.4198682748811 -9.051066992698582
235.98342571251 191.130041310805 -10.48635051686311
215.9354419237647 157.6843229307544 -7.248384960537427
184.7744654204784 153.7677979754112 -8.770882610111995
176.4711052073709 155.0950507863574 -10.47553915535957
171.4480358455893 157.7168568865474 -10.05984686294318
236.3230155061657 194.736811083024 -9.307844538995527
179.0212956875393 154.0852589354872 -6.739122665141846
179.0660934924572 151.2318069716664 -6.846651970901723
234.521060781471 194.3109700409886 -12.51609049146342
235.6297307256504 195.9088006156875 -12.57237469999067
180.9371587353857 152.9152132155384 -6.427983661947716
231.7854598475006 202.1543139946008 -6.7718179937995
213.2243740761554 156.6564778909129 -7.124401938988016
233.9240452856602 195.8714554858767 -8.848982223160949
172.8214102767829 156.2140951033999 -6.990468185613286
233.2874271927711 197.2427802665973 -17.66345587872871
177.8832118858527 154.1149802961918 -8.456318062498278
231.6826476806197 201.5868810033774 -9.775670001507887
172.4324137362388 159.099796726559 -6.911443789073095
175.1307407379849 153.9080844960536 -9.601934945781499
229.428674132994 170.5399525696386 -8.054638611594749
230.1833734328064 171.5894827296754 -7.467073678168669
174.1106461899659 157.0781570486748 -9.931157846115632
233.3405031473086 197.2613342956091 -10.76010472557338
173.2138325310127 155.7249123786338 -9.615729769341076
234.3457512553743 190.8419894076158 -7.627511895882521
235.4197372570909 192.1639202721391 -6.685778427550663
231.1685590123015 172.5915591489938 -7.338678827325958
233.1790132048676 200.5609553182824 -12.61674353390177
230.9500333203254 199.5183599286523 -11.05860588741411
173.1213182380208 155.0542470109898 -8.026867458915778
233.9698611864562 198.5824307179356 -14.15888282239625
235.398759078338 191.6110131009674 -12.58528408377548
209.732079882484 155.279683203045 -7.074698386914434
231.9001621435826 194.2364699131389 -9.064051653378568
174.3836094264749 156.2193609308346 -6.720036735502548
180.4339719377917 155.5417208854763 -6.69085380519251
235.4286224500593 198.263226258267 -9.179976512888778
234.5980590065941 194.0186298866344 -16.7779788066761
173.5345931845864 158.0292062883764 -8.676909550367562
232.9752800617367 200.8705842842652 -8.247894054114676
181.1769062038899 153.0176595986457 -8.536377442957793
208.0961757849756 153.7617212781695 -8.932578077006328
179.1978207082 152.4367784196906 -10.87491838625432
176.3631659394379 152.8335038655383 -6.804616839834528
184.8151484888813 153.2813338956417 -6.836697136446579
175.3935003219512 157.4294492321347 -8.940240127505856
222.3433893924253 163.5768160177471 -7.091737732201905
223.3977331788124 164.230479724765 -7.365352226575585
232.6242456012775 198.7031042566925 -6.608014665711788
185.1547688266903 150.7054389558382 -9.467862842706472
204.2368494243039 153.2584826249284 -7.486548921539502
204.9650390662977 152.6051107678558 -9.195991522463455
203.4597053795886 152.2409298471716 -9.933447500307874
227.9597986375661 169.1734792761253 -7.09577310441066
227.2419027943335 168.0986476597255 -7.331861695179466
187.1270785066477 152.855106353565 -7.059770700422633
232.2598620019691 199.0723395059374 -9.359263745178255
233.5725554436237 192.9139126968279 -12.25889563389238
236.3610925064247 196.4598311548612 -8.978129212782566
197.447993205846 152.6859853126743 -6.93444752858563
199.5013760546386 153.4209227695357 -8.241481857585068
232.238375027022 194.6396683756205 -11.99973140333756
195.6400997101506 152.1749653324122 -6.998085323863553
182.6451948773287 152.9947988286641 -6.349255199566602
214.4285513996711 157.3168563865627 -7.739477290332724
233.9688611699391 195.930011516294 -18.26934267068421
230.2171953660438 199.7239735508593 -8.461200805769991
180.2372354074586 155.6529125780168 -10.84035604867146
217.9496052687701 159.6266476316083 -8.668634561844806
231.390035902347 195.7481747170977 -8.689991644023063
175.7405576521281 155.4863290684075 -6.544125810744957
230.7658050848636 198.3131421932802 -9.032123854058597
183.1980741005331 150.9675704945602 -8.690935100482896
190.2304622819247 151.0433248594304 -6.573012145969942
197.2922442379054 151.0835821574198 -6.938629930156991
199.5448788782141 150.8696586214815 -8.445099510553559
201.9389757635149 153.3885633857411 -8.320486173593705
232.436664900463 195.7627110762125 -15.14291983428625
203.5252052884299 151.2696897419247 -7.023006784283085
234.4854113680855 200.5596730049945 -8.771360535642316
194.1496235304701 151.4996106557569 -6.652532481595785
192.6349231760454 153.1664667744838 -8.053046737901926
177.3669058893248 152.0424847931419 -9.283042646848237
187.111849309367 150.7469059820342 -8.780292325842076
202.9166245702158 152.7150180791699 -6.800669066092918
182.2476289942229 151.3007368166534 -6.711953670540596
231.8992977317308 198.8467507084509 -15.53282313922094
174.8432890108827 153.1600032653241 -7.47765320730875
192.7977959309691 150.7768467267679 -8.39184252583266
178.2340160959713 156.702385514291 -8.684012885961266
236.9108350697267 192.3682560331056 -8.183312721856655
237.2688883685155 190.924467258765 -8.519778153280065
234.0461139111687 200.2152428255156 -11.23027470620361
235.6401329806398 194.7209228104671 -15.69648642604982
234.218186118434 201.2022904238533 -7.175765702615855
189.8136604204996 153.1203648921602 -7.41599288940455
181.6517807684509 150.5839010919993 -8.419330125748422
235.9763692481226 195.1486759576207 -6.823761747086361
234.4214160416368 195.5331148866972 -10.58395203583854
231.4314739761239 198.0103999986706 -12.11817304364497
234.7776565609186 190.4773471928365 -8.98237397009364
175.016470682823 155.9192287891654 -8.470310783394975
171.9546971307399 155.9652415276914 -8.577257689410414
185.4660940109236 150.8017017571549 -7.507979395277344
184.6579648320878 153.123054800498 -10.66192258546581
231.2600212448958 204.2376289796523 -8.374951795360282
230.2032896289903 199.1461289378782 -7.076124546709299
218.9859036951274 160.2907212192228 -8.9441503334135
195.6521650884695 150.9126159727926 -8.84867815497566
194.2714111062465 153.2016328031629 -7.466082604711261
207.660202465724 153.0121617048696 -7.109039646231796
195.6530651966756 152.8519490111163 -8.839594488765204
232.0141751994972 194.3798288360319 -10.54445596217855
181.3788169810051 154.1435577532521 -11.04929586695269
236.3604971058117 196.5183450647616 -11.09760859471469
235.129680970288 193.2445902021022 -10.17288165695632
232.0062030718819 173.4782511854218 -7.067035543641505
231.3931933388263 198.3132635187026 -13.95814396909094
193.0260477422133 152.5549554716127 -6.542727089492842
236.0968086185846 193.6294579715951 -12.3402583738178
230.5156364468022 200.9344718590025 -10.97944174742616
216.5688383601161 158.390140750144 -8.36550677839141
187.9359456311213 153.5073179667608 -8.593067216522346
233.684249093976 199.2482370966841 -16.27350984894261
232.0668932913608 200.5186753734086 -15.3956599554867
236.5748453328593 192.7050485265644 -11.17607807955081
234.5697025570587 190.9769945754317 -11.34915844003993
232.5544894962499 194.3874209768518 -6.370919227090864
230.386646624827 203.693313527272 -7.899777237638389
209.8232176848337 153.7248135930847 -7.100764188259173
171.1194645294976 158.2913586225214 -8.602658818367665
212.1886840613405 155.7260919083099 -7.291987073133966
234.9211771886449 192.690401708935 -8.860328935935655
236.2525449001932 190.8784439176195 -6.737204441268483
192.7501736438605 151.0298144753552 -6.888676943769742
183.3676468994436 154.1878803090905 -9.987159022524557
233.7450692088258 192.1208747402553 -10.9911638877736
177.7061765131449 150.7500378215099 -8.102106494303669
229.4651409014426 201.4600498660946 -7.795153493987894
230.1489060255077 201.7256156265042 -6.642759873240713
234.5399920732831 197.0811495710112 -15.7494021676341
233.2406980654675 191.627123543486 -8.806252969012821
174.9781010297048 157.6356043664698 -6.483270789983783
177.412000014027 155.6664210825131 -6.421779836457932
176.1069965922054 153.7096830433316 -10.64506439314583
202.0129187942046 152.6206998535913 -9.924429047727587
202.4326584677307 151.0311642764277 -8.989560252074309
234.335003486827 199.2692294420907 -8.878803706862474
229.1116008835912 170.4394392707607 -6.922725305302256
221.8935267885666 162.6684140273545 -7.913975664942583
232.3646638714752 203.7055519289127 -8.447848768907848
235.9040072333755 193.5511532695786 -14.10607844398347
193.9630390086913 153.1005444472755 -9.245236479506449
173.3326346711429 154.3291769565444 -9.205877880576308
234.1883712930771 195.744094149173 -6.206230935232877
235.9674627709581 195.0608800935981 -13.81202633787608
231.3964351754189 172.7862787542732 -8.704831643393556
175.4361346906756 156.9996001303541 -10.42186996912618
201.9215845555561 151.4280847862955 -6.800265569173785
182.6178473263777 155.6518374146666 -7.237496558086729
171.4105156949867 157.0619149086775 -8.806234153358192
176.4697583011121 151.8942890776692 -7.826289002395567
209.5022184209269 154.566280527892 -8.512402078347892
172.1501253394765 158.7697176605765 -8.245028027605613
198.0187852861712 150.7346478038353 -8.255530962573799
197.276379432627 150.5720388056708 -9.547792441199846
228.0703563951566 168.6664391361535 -8.093972853218927
237.3386080930902 189.9606934843734 -7.034328897849825
234.9177729529022 197.1206790261397 -6.503849720471267
178.7477520669546 154.224197767363 -9.796729331539272
222.9036648683612 163.4784469066472 -8.086510528153376
180.9901701715758 152.2926776417748 -11.07619161563904
235.4519605804394 199.6820265832039 -7.744335967459278
232.8418065814207 203.4938415836929 -6.989525952696988
190.70894124517 150.781335567114 -8.590779704732812
233.2277797586112 201.8138189183027 -10.78415001518003
233.1650191243089 197.2769487206055 -12.24779000485154
178.8417918158077 156.886561922256 -6.785601225982395
177.4544235457463 151.275272201529 -7.037612154093615
187.2547027038933 151.136287867972 -6.985576320100816
234.2427207861999 198.5861666382076 -6.540111860012251
233.5300186060197 193.1221670958408 -6.653493420165846
234.3601641259408 194.4988863273047 -18.01429711460289
204.3728336571242 151.34401348145 -8.670290278133443
195.0848209909949 150.6486603979458 -7.464523345927176
236.5320656569671 196.1120508318943 -7.55802878160088
178.4838259925822 155.424782655944 -11.12251948038688
231.85204141714 202.8364455016829 -11.04848759570329
231.1510126373312 199.7542231590546 -12.72537255107096
231.731878739804 200.3196572769189 -8.572107920585143
205.8861873295635 152.7858579149183 -6.712625303111344
185.9776256147597 151.9375847819747 -6.602057666546737
180.22707192898 150.3214411962792 -8.651983214926464
175.6457560071767 154.1584191815165 -7.374389622232095
230.3744896392889 202.8181023352547 -10.00605598810444
206.3425581143323 152.8873136969897 -9.558106094213281
174.560954529852 157.6412331563887 -7.890626953683667
231.647798705448 204.3938836556946 -6.8395876221718
234.511965860344 194.7127695784887 -19.93095547721338
234.4244839258322 195.1958845993429 -21.00421713068249
234.111627032819 195.1591110112186 -20.60883295243429
234.7972736022145 194.9994262259328 -19.86086973194695
234.6092028921262 193.8009443355159 -18.67051975154795
235.4829474304761 194.8684817481021 -18.15834514563208
235.2902251711114 193.6047483826827 -17.93707318510273
233.535464257042 195.2548193243537 -19.33886914622228
234.1355883097664 193.4758392922676 -18.19180093180043
233.4053534340333 194.1867396831968 -18.37421515928947
234.4387436982777 195.5243715505488 -20.58990447366685
233.4172702397285 196.2582676047987 -20.6546309945474
233.8164345143676 196.6647680088124 -20.63760622323891
233.3672754717917 196.8070683669707 -21.05076373418197
234.5135 196.50475 -19.41885
235.2164001888926 196.4258291476181 -18.11230901938948
232.9684270551843 197.2357774563149 -20.07590214808354
232.6869368631676 195.277024390342 -18.19003576403242
232.3321835489527 196.8248242773552 -18.38201417166345
232.9548161476402 198.1896637732527 -20.25865534652082
232.5047922021922 198.4093311604932 -19.82453436351266
233.2337971004149 198.220865207225 -19.91230709799939
234.4572663796524 197.4426105939298 -18.30258362053214
233.8442042023354 198.6968905856757 -18.45765012077059
234.6470571928892 193.2117317317983 -17.7126416243777
233.4301358410449 193.3060200120717 -17.33186553333386
235.0209354854993 192.6200732186083 -15.92473400298752
233.9608948091057 193.0276775352572 -15.93954449084176
232.5737058242355 195.2336299570428 -16.45549965035288
232.925309622871 193.4669423345595 -16.18564611571022
235.8940135259609 192.9749447552505 -16.28142803871032
236.3434384861308 194.6571168497181 -16.67533497648414
236.5497586785194 193.7327520347043 -16.09750116362235
235.2337249658773 196.3133519528185 -16.38667151120778
236.4235544709139 195.328567874763 -16.06473462226001
234.6815957115116 198.6643877150344 -17.40980980093454
235.4009044716927 198.484692639983 -16.21591553236861
231.6755289910431 198.9424702795091 -18.79585982958147
231.3865901135376 198.0107788769305 -18.24166870730658
232.7201428845885 198.9365932680977 -19.66499386813786
232.4941575400393 199.9214956406975 -18.73498886790732
231.9567151110469 200.0294755684675 -17.99547050411205
233.1949397802807 200.0276263007772 -17.96480275035885
231.3387684283138 197.1346776367726 -17.37874028906095
231.8173127007565 196.3862536662515 -16.26902564185545
231.2571799053542 199.1427544932044 -17.64882054323863
230.7769236454495 197.517302537114 -16.12502716258447
230.7420177024837 199.1783271116812 -16.24872300079785
231.1896319148373 200.2363696885552 -17.61098481703171
233.1714021602613 200.3396070289298 -16.25408515360938
234.2958116569201 199.5143180881214 -16.28261475471609
231.6343750234342 200.7320275084223 -17.59964975060664
232.3524542426718 200.6531849152076 -17.68415082833385
232.4351793331186 201.2276688291514 -16.16724601301154
233.7119537792619 192.2472518501929 -13.68965467104667
235.0962582151815 191.2231613202244 -14.67553211501501
234.28519226599 190.9539548034986 -13.95952251188871
232.95037990207 193.2489254762208 -13.73219780269063
236.3568944471127 192.8207625660663 -15.08447548120635
235.8919217096174 191.052641345173 -13.94081872634077
236.3879996163056 191.8517835763097 -14.02863939554192
236.8875256784707 194.4491377354799 -15.68568569884724
236.7058111446464 194.2953248835133 -13.83905069500338
237.0903139216168 192.8062825878805 -13.88173987913248
231.477325242978 194.3978858317556 -14.54977354531866
231.49795292932 195.886162239177 -14.36444510949083
230.4468386004503 197.2881066407237 -14.16647593511385
236.7394994698351 195.8761815365474 -14.34212842505085
236.2544084713757 197.1300536963951 -14.47247605523926
235.1001011831029 198.2491696111273 -13.66379327478501
234.760351216533 200.0895389290244 -14.49503502545404
231.3774447805893 200.3613121824611 -16.10328829520395
231.5109086702527 201.3610253318034 -16.06413887112793
230.7608330997197 199.1355024941446 -14.1706027044451
231.1029670815877 200.5840539824111 -14.02130416907437
231.3306984549866 202.3850016117103 -14.47042237421626
230.527 202.39575 -13.729775
233.7288165783315 201.1414382565889 -14.37808354543843
232.6606877930904 201.8078673152253 -14.27636448700065
231.7783551633009 202.6385276174736 -13.90502505592221
233.5162696280627 190.9609743175767 -12.99795053042354
232.1974842886274 192.7108237803401 -12.10998018042972
232.8188993556672 191.1201912768782 -11.83102835615312
231.0790047297904 194.8587347258019 -13.18275308613168
231.2967236557862 194.0507792867452 -11.86854820813061
235.1332504965653 190.5540372316154 -13.5102146831916
235.2103972530841 190.0043357480782 -11.82081815271559
233.8418668016431 190.2703026327339 -11.62776763251898
236.48086732132 190.9840599973687 -12.8997921692067
236.3871310488783 190.1305575965542 -11.66722190787782
237.1972471850109 192.7870048917573 -11.86577934671912
237.2510070055379 190.9544072185162 -11.68859154419423
230.7497071818623 197.2416276314706 -11.81726412282091
230.5237854662054 195.2513066212272 -11.90094162721301
236.9688037632408 196.768895785216 -13.27798307665768
237.377301358761 194.6512443807613 -12.00169251217357
237.1919876813618 196.2405769536477 -11.88997799544657
235.420934028655 199.0298716040529 -12.06318716620781
236.886488309491 197.6281898245036 -11.99096280379689
230.0144158195455 199.225861329002 -11.92332065987733
229.9312694009062 200.9577997025567 -12.10932883774294
234.5705474681773 201.02807436161 -13.09214531724855
235.0655760107653 200.6756116317729 -11.95886032784238
230.1706536317635 202.6394581360336 -11.78184094385002
232.6395346301137 202.7230613711967 -12.96091608654121
234.2602340674142 201.7301518579696 -11.83207931182874
233.1888867880471 202.5775997090527 -11.81955503213182
231.2230336902139 203.0164731010426 -13.41120068200954
231.1652360021771 203.2272201455855 -11.32258024578005
232.3100730176175 203.4792986646453 -11.5938219217068
180.9486038796223 152.210230816526 -13.13505422299051
180.7641739304791 152.7849302791341 -13.53392013930233
180.0292812724104 152.5608550749089 -13.31360019134647
181.8065 152.63975 -13.240875
181.0565342360452 151.5612790162912 -11.71792506227422
183.4672439269163 152.5541492819664 -11.54955658455566
183.419328150423 151.4622845351729 -11.53484781561829
179.2257695227197 152.6431013099138 -12.4390511372787
179.3971371927325 151.7691047099704 -11.52043586632573
180.591968625412 153.581682613037 -13.52227526187423
179.0980251391242 153.1929486240002 -13.4405692848868
179.4981641329673 153.7744498611818 -13.63430905187144
181.6652777776446 153.769994464134 -13.1302063928589
183.2633259781992 153.7124715678609 -11.91979022835743
178.6152805535653 153.9612306914742 -13.31120660102029
177.3937704965604 153.0242921547488 -11.66141079758335
177.3226858441192 154.348658841177 -11.37610775036954
179.2545634956684 154.494983277582 -13.27855132189928
180.7956497259396 154.3273448340672 -13.11028307018799
183.2194325146568 154.5933915323882 -11.21516089073052
180.6375070440335 155.4017549020494 -12.22629267081177
181.8155491917747 155.6516197819742 -11.45714965956954
179.3304616657049 150.4579230588869 -10.35446213631176
181.1980259020509 150.4817649859316 -10.44867879839755
177.3618286674738 152.4307032785615 -10.44359677279062
177.0639268369439 151.300183201309 -9.604430392007067
178.1507166449163 150.3985895199157 -9.565734318048669
183.4414689575016 150.2842070460141 -10.55587333438321
185.3229571487612 151.5902730209695 -10.87873448185334
185.6145482916293 152.4252638489745 -11.95281910867239
185.6209921368521 150.2670546272751 -10.52535746769108
185.3828852228872 153.4878462476901 -11.90982721617497
185.412227137035 154.1471866710469 -11.05021205741763
178.7821967372465 155.5511252448411 -11.99628958510087
176.9326678540668 155.6602165578377 -11.958173806629
176.109384919497 152.7134363699005 -11.01120255534421
174.9230676576291 154.5065269726686 -11.88020102102029
174.8025186115959 153.4331731072762 -11.28723146513747
174.7019515417754 156.0918420224035 -11.78922078136967
176.8684779603589 156.2122868446617 -10.5078488762271
174.7335104973487 157.1959697215214 -10.9415753627685
178.685 156.84475 -11.341575
180.373922309258 156.1981124278903 -11.08723213835681
183.5019305140301 155.2387971204792 -9.950060890167297
182.1274928429658 156.004690534402 -9.986742465390996
185.5087697742325 154.4243021504352 -9.756020584693212
180.6699062369784 156.5024572117324 -9.658972699097955
233.7710228022558 190.1489451111771 -9.638827613298176
235.5075107207722 189.2479599022455 -10.05117731498016
234.8541092070978 189.0173117129864 -9.330424918074614
232.8133493649988 191.3431170426766 -9.705831544634099
236.5581939065687 189.132934976195 -10.18420411196235
237.3556736280677 190.8438246934222 -9.606798208489701
237.2611093613042 189.2828619010036 -9.204618230805579
231.9297799814025 192.5884149259983 -10.26222272446231
231.0044971858774 193.6329354560476 -10.15728432804807
230.7301202943817 195.0638679468717 -9.740708102880934
237.7362814470514 192.3237529863821 -9.793117263699527
237.7961095382867 194.3982627670175 -9.806990242507824
237.2407511750776 196.2382240667865 -9.701474052885615
237.1970149520945 198.0772630617805 -10.19629385401506
230.0391746901349 197.0141110379711 -9.80594138816538
229.7366597179923 199.0385842173938 -10.02695078586343
229.0660413547312 201.3901683316209 -10.43756536676593
228.8569251482492 200.3290408120897 -9.760713772306499
235.9212996400484 199.1542700228568 -9.817660337634123
235.5673701116058 200.8928167949955 -9.922407335658635
229.3822577058534 202.8151151037012 -10.1988778786023
234.0326845661597 201.7400638758248 -9.804686876381142
231.0003459279857 204.3822686239135 -9.747727982835954
229.501067388369 203.679567869575 -9.347054184597466
230.4276720539488 204.3205189834509 -9.255888030277154
233.6926933514218 203.1568857244219 -9.941185903982316
232.6660917600292 204.1472535358686 -9.84234664900082
231.7265942158718 204.6345045942522 -9.4488671121712
174.9185934204206 152.6429801042817 -10.48710390961917
175.6036168263743 152.0111328899444 -9.369195343176102
173.6785911504341 154.4574132192016 -11.10368178559803
174.0629774134997 152.687417738207 -9.420009981096268
172.7158898009342 154.5774628295286 -10.35013979170008
172.9056481128237 153.7798423069521 -9.408772771097578
172.6208205696784 155.4622622407967 -11.06283287661876
172.7765890492073 156.5430580061809 -11.41763528188325
175.3922932564656 151.8630702994616 -7.924864385805811
177.1274408379044 150.4396290420856 -8.654512041170181
176.8559673131153 150.9545118652343 -7.672059196119832
174.1029807032102 152.6489652675827 -7.854123756781334
179.3452419076949 150.0701124240775 -9.17104003335532
181.1812506280259 150.2023062747385 -9.123773438636883
179.2210570451968 150.6105529887324 -8.022633527509996
177.5849005810368 150.0790637215231 -7.670880313206101
183.4889356026931 149.6254726754542 -9.278840659280052
185.726458909349 149.9701250218615 -9.045134912512367
187.9202966538321 151.3634311179692 -10.99122083923656
187.8328283790397 152.2418394434013 -11.67368979852992
187.7949727965184 150.4762636725471 -10.22772263054393
186.8109967366902 153.1492828695845 -10.77518945055443
188.1650642427877 153.1354977718193 -11.52256869034694
187.8709120114843 149.5040575009882 -9.255009962359612
190.1017996032869 151.2519330018509 -10.82595104485346
190.1326309352765 152.0142805094913 -11.23132583980088
190.1676857003648 150.2523443592375 -10.31196884200764
190.1835417401165 152.7985342461874 -11.03673435225697
188.1185382741144 153.5670264155567 -10.59525123539912
190.1725041778085 153.3719487615889 -10.30627169099774
187.9313520108956 154.154683937357 -9.476490705465197
190.1436697824092 149.5241594759941 -9.263215941503427
190.1160954304177 153.8880083296842 -9.151420421282458
192.4685214607161 151.1998852346768 -10.86326822943125
192.4587199159561 151.9443301233389 -11.24879259563569
192.4695623670354 150.3777374277321 -10.12095645858135
192.4757407521458 152.701047078765 -10.96892297826497
192.6958930482998 153.3287193401459 -10.16882030569064
192.3167388419504 149.6291010802705 -9.134129248918381
192.6639252309891 153.830559278439 -9.197237153205766
194.6555747428489 151.2230762414908 -10.89369486940297
194.6567843135969 151.9333049389086 -11.1636783239432
194.7379089322106 150.3179127177477 -10.29516143471371
194.6612232963997 152.6125164155147 -10.90290039937925
194.7078312546315 153.2485304335323 -10.01381330297773
194.5953835171478 150.0747657905261 -9.013828784401547
194.7162312694434 153.7629634241715 -9.110102024501536
196.8605731282767 150.9716045078031 -11.12951974097761
196.7858319919255 151.8968087845994 -11.25599287093097
196.7361433275256 150.4688326162415 -10.09888760637318
196.7733967031823 152.6336782404511 -10.96953211635585
196.8756745844372 153.6621326916668 -10.49166455352985
196.8687121100402 149.6079877137935 -9.192693027576912
196.6715489551764 153.400377131797 -9.137627178747259
199.1565566188268 151.0236175459551 -11.17837674086716
199.2847535578418 151.9030187205139 -11.05409722529704
199.0731559703053 150.0901833529921 -10.46551787166958
199.184165827232 152.7702807448878 -11.1876171560416
199.311372306594 153.139780110039 -9.988421846575484
198.9362816518158 150.2353206328062 -8.989842450377459
199.1305847667282 154.17195411508 -9.227096822308765
201.287821428581 151.3197617442695 -10.85223425028708
201.323886981366 152.0359114748995 -11.19230085148743
201.2778896116414 150.4540771282764 -10.18015171971553
201.3472879378409 152.7115334646148 -10.84057069091438
201.3646818375708 153.523123402662 -10.40856212587963
201.101430648921 150.1810949366439 -9.064718723977915
201.3463375053312 154.1911340033791 -9.239349296331742
203.3384511276074 151.2185179794872 -10.93745395533315
203.4758571916115 152.0704092764625 -11.6506444535022
203.1392662360373 150.495965505757 -10.12996355889766
203.7246230783157 152.5393285690803 -11.06496999760658
203.6063569875771 153.6479204725033 -10.51619396164271
203.1453460375143 149.9778584922844 -9.119065325899612
203.4461392888645 153.401697485686 -9.035868597316323
205.2868293661314 151.7600828262952 -11.10828985951696
205.5210527427856 152.3502226580956 -11.9961722308467
204.371551660484 150.3439071526569 -9.51007359690983
205.6888808241793 151.411536251669 -9.342709937034202
205.8638970199083 152.9065851922335 -11.88065023227381
205.8839705963996 153.6713806249316 -10.63845992839732
206.1055313279273 153.9100134171278 -9.168706981839327
206.4397179674665 152.5518627870353 -11.73682972877447
207.4490616740166 152.6697604133407 -10.2796393927486
207.2499464762584 151.8011235503687 -9.344522638298649
207.3619999615873 153.5748489864029 -11.64334239681944
207.6902550588242 153.2543926501285 -11.6002157655443
207.6191070343959 153.5714523657063 -12.02153482627747
205.3835425212053 150.4396347256879 -8.544694479444157
203.1790467792683 150.3081483316898 -7.863509525574104
204.7418724339254 150.5816642671601 -7.642061789266178
207.6870756591325 151.9092043975486 -7.792110746208234
206.0911216334827 150.7969699461514 -7.674938580940895
207.8424505764102 154.0769758142398 -11.03664551516689
208.0735444896632 154.767662564243 -9.558538716922342
208.1689955066176 153.9161566097641 -10.83308009507133
208.5461368232979 152.7674232604511 -8.94150959420667
209.8892482731163 154.4318833663472 -9.827950533841548
209.7582359913453 153.6925692999812 -9.074210766335192
208.9614760260497 152.5663684393908 -7.89300752033486
171.6952315427939 156.4854706658501 -10.98353395288121
171.861703066132 154.8071531193361 -9.387231915799815
170.9946244826994 156.6295092381797 -10.30321576343391
171.0139238368463 156.1524300353836 -9.305593111897245
172.3704855507802 157.615077034409 -11.21314374176252
171.057376752867 157.5562155052845 -10.61226334092794
171.1670939218347 157.9045456608966 -11.10816302721872
173.3634955402832 157.917738507315 -11.04877618219824
172.9483481990632 153.711269717886 -7.948739509306119
172.0910424337949 155.148518407269 -7.886433303871957
183.1268342622201 155.2858818724291 -8.628803017780676
185.7159871408059 154.9307663342699 -7.947991178749684
183.8809610904045 155.7158967898328 -7.735808544682032
180.8245573249626 156.5608188358716 -7.923365348434047
182.6467451434069 156.2248749718555 -7.716939768023225
187.8872156301443 154.5931999759159 -7.921767196002655
190.0752002221349 154.0698844385682 -7.77386703690445
210.5083565565531 155.5166786232689 -9.550735916256198
209.5095036212032 155.1440543543091 -9.125925073778317
210.1700829519654 153.3097648077942 -7.927745489426691
211.0953556501477 154.6605857844848 -8.868821055957609
211.7779424252616 153.8952435929555 -7.580738461182841
212.2763495693389 154.5673339850437 -8.364142837779102
212.6245787110799 156.297283793491 -9.239101950037099
212.6344816067004 155.3257343075652 -9.057911081163693
205.7444231569734 154.6531348415226 -7.785443701021032
203.4920989279793 154.3678425994767 -7.769128583743796
208.3522636019555 155.8054308669327 -8.577339785885062
207.8951275281527 155.0925307381615 -7.750767239992193
210.8108861936325 156.2145182296948 -8.79301015328741
212.6981275706611 157.0681726149067 -8.762499933292466
208.9607928923598 156.2182778736477 -7.628646948692476
210.670750111122 156.8186450628069 -7.694053401746133
170.8043665583245 157.9841090746406 -10.68583831711038
170.3537817179321 157.1028638200893 -9.328095549337901
170.8182730754097 157.9806415706684 -9.295201040145251
171.2498179015622 158.2991846455594 -10.70500010199619
172.2970903145659 158.4014651460776 -10.72066305707239
174.5299963968783 158.0426127878831 -10.56371601688085
176.2933313423663 157.9329616105271 -10.27443819901633
174.2068385332712 158.5987928377417 -9.254432424396414
172.3934996226986 159.0288410654143 -9.537328953969418
170.8108515024842 156.1502171286294 -7.94355551837398
170.6938158775964 157.6225228260594 -7.753268094637053
176.137266894393 158.3396057253108 -9.209516627661483
177.6577308141041 157.7529192590734 -9.323370833479908
178.593516625777 157.1431591191712 -9.707318980474628
178.4842828471707 158.0734425315946 -8.680183458039302
179.2594291629655 157.8489514595292 -7.722467515674102
176.0486601898402 158.8029300190129 -7.786848325400568
177.9622043863482 158.3026391412959 -7.617668720680519
171.1301533037256 158.7566836598496 -9.44310292621261
170.2923348691803 158.5836858466515 -7.726245003808144
170.8083617601483 159.7389788022536 -8.179835601413322
169.9148919799401 159.6451472793819 -7.442550797855821
172.0987503568947 159.9827963533904 -8.226302442271798
174.2286899008106 159.2364569414011 -7.913829576133433
173.1009934200503 160.1342605025258 -7.672097421176174
217.18025 158.52775 -10.90865
217.6129760387639 159.1997510505331 -12.0002966149338
216.9779287829195 158.8470027775526 -10.90200183700129
217.9142798003489 159.235269842981 -11.62384036091243
217.2940408015555 158.554802261735 -9.296349562713624
218.7059876722729 159.5066403419403 -10.18719557713051
218.2497038039241 158.7895449198504 -9.151558932590575
215.4426279090675 158.2572521946439 -9.785450325466607
214.7486776565005 157.2024513048712 -9.436919976448422
215.7400746635469 157.2133505891655 -9.159573690637002
217.5865 159.51325 -11.5891
218.9134661099372 160.1291781612423 -11.52953018108436
218.6535040588202 160.3247041496864 -11.60956621081637
218.8810352007756 160.3325000584205 -11.98954312749462
217.8429636967775 160.0268935915669 -10.02336053477827
215.6297921569525 158.9320324368552 -9.138350024939573
216.9235109389259 159.9490062524744 -9.146367170378413
219.6855 160.77425 -10.85705
219.5339810897379 159.4856551748919 -9.243739591436618
220.8894965126113 161.3953415781305 -9.764108328115283
220.7246976365377 160.5629909510818 -9.148372595931274
219.1496942367403 160.7338322581487 -11.08809908759021
218.2806661662236 160.7535135844299 -9.107492039477501
219.4128412936619 161.5732308102617 -9.538637628361933
214.3910811784089 156.2518507782985 -8.767008746053033
214.1693994845716 158.1057353001179 -8.938645997226182
216.651290891242 157.0517202160632 -8.50645801879838
214.3177660453193 156.2350704832483 -7.59499233468095
216.1145655673122 156.6525102687452 -7.60217640635757
218.4237531834597 158.550605777442 -7.89499678599874
217.3508871754455 157.2799844333216 -7.705895344745342
219.607345997414 159.6261921445885 -7.911154835893592
215.0694473500804 159.17114887352 -7.798883207526417
213.8086421781434 158.1689191664553 -7.814902872693787
216.4845827882634 160.3109816266339 -7.865035019369027
218.1600049495983 161.0554717716411 -7.949625650535285
221.5610661981054 162.6697926292869 -9.379932142094525
220.9778480723254 162.2590888725459 -8.920844368626186
220.9180057949878 160.4853992174059 -7.781386642172741
221.9408966143302 161.5951391882127 -8.89330342113079
221.8592176319337 161.8039336268616 -7.750996726631793
223.4123496435531 163.7198912945889 -9.031825852873892
222.8814537761221 163.005381083517 -8.648328570346312
219.775384286191 162.6258956049693 -8.483523985421838
219.1866439474441 162.3678588800138 -7.670977273017357
222.0243274251958 163.3837703287461 -8.681758311252455
224.1768837030464 164.91629355484 -8.84444100319512
223.2520110325159 164.5420354738448 -8.541167773211297
220.5499588746677 162.9787240770193 -7.613004494386011
221.8280624466659 163.9012060336457 -7.801357130860081
230.8339823842841 172.1080185951043 -10.74973721933809
231.178120283341 172.6186227925042 -11.99780571868703
230.693187099331 172.3164126890388 -10.94331919614658
231.2057211604875 172.5810337084738 -11.4566602438683
230.1015456444667 170.5913484815597 -9.763363016338877
231.6150403199838 172.782333760407 -10.22219085645934
230.8723056036765 170.7473216456619 -9.148184444333037
231.856436827293 171.8541411801233 -9.281667461654212
229.9325488467687 172.0335062637229 -9.535810224843127
228.8677536168639 169.9789804393975 -9.394656321602049
229.3024653449719 170.6218524141142 -9.08523660188145
231.2199297479632 172.9354385964004 -11.62307790041009
232.0706648186861 173.376533367264 -11.61872700761522
231.9165847582907 173.5699634289911 -11.6419219766435
232.0854543079216 173.5739179278974 -12.03639082542277
231.584614354002 173.3382640737988 -10.19238359600517
230.6491077249622 173.1045362753738 -9.352157501326781
232.2932815535432 173.6427361806482 -10.97539117426243
232.1260677954645 172.9557287417709 -9.440652913207208
232.498072713634 173.7050566009079 -9.423103900355507
232.1268268205209 173.7640925953563 -11.07464843612284
231.5218679258459 173.7749443618812 -9.411177108781928
232.205405616861 173.9388049610736 -9.601401322354167
227.7789032330759 168.0862600847579 -9.031203200471825
229.905059554382 169.5756327322334 -8.914144394208195
228.3106613504194 168.5742468775041 -8.658106518742207
227.7900926970693 169.6950354010662 -8.861574652804931
226.5835645589567 167.3224878230916 -8.843914156649497
226.9575923957514 168.2466882584281 -8.540656494289914
228.8933976438316 171.6689047210669 -8.50270149687303
227.4605154406885 169.8466873482961 -7.762956379707864
228.2660103764205 171.1891318859837 -7.605466851140077
230.3580342184365 173.2900211922222 -7.857353566644518
229.2049716301813 172.2431195436467 -7.658026671158087
230.7575502578662 170.6859006969135 -7.817580972455831
231.9966779048396 171.8008014642969 -7.847081488935723
229.9805720809814 169.472166164511 -7.710749401231684
232.4175715515983 172.9179527240058 -7.638365066545178
231.4678171220893 173.8475329172278 -7.633348883135978
232.908732281216 174.0155620106239 -7.630266439700229
232.4513075713305 174.4007726339656 -7.682009478794535
233.7605834308694 189.9478389014339 -8.093725022159644
234.7143150308846 188.8562409789793 -7.933533037101098
232.622108396239 190.9318375767426 -8.071121937659978
231.7167605999185 193.1014528572832 -8.570280620531911
231.521630650831 192.1592494767142 -7.899004027455607
235.7416122493164 188.5287620430407 -9.111683299400552
236.6148496616407 188.4465109314056 -9.008568313752967
235.7914056880365 188.1237403713523 -7.56855731309395
237.581235365981 188.8070586493936 -7.682479726612726
238.6463824680398 190.7471641119778 -8.194918382763921
238.5287334623962 189.9194851039722 -7.507973269231101
236.7502973520782 188.1664972334434 -7.287969694995981
238.7269568063059 192.0328435136047 -8.265299603941051
238.0496447965218 194.5546508940972 -7.958505192895736
238.730887276168 192.8504536483581 -7.591784341904174
230.6561154799378 194.8192989709962 -8.223573597958215
230.8879314820372 193.310434065955 -7.891419380625657
237.2917766028648 196.6759200739907 -8.121510329358379
229.7159600953743 196.9127753355247 -8.075646318150627
229.0333438698058 199.3200928760341 -8.706999831065058
229.4864617551334 198.7900739351567 -7.889065563214673
236.8209595628213 198.9507382691386 -8.896100104451522
237.0765381762431 198.1661008894467 -7.923775497437065
235.1391850066003 200.9974012290516 -8.00897604676468
236.5928855514247 199.5895596668525 -7.830781489214527
228.8269013081886 201.495517623365 -9.136040435957185
229.0542299084699 200.0310280963554 -7.71738643605658
228.9160604358847 201.413989882401 -7.829875307303293
228.7801434903634 202.7673537219682 -9.174686711407702
234.2734194637339 203.1535146507843 -8.803676831110534
234.8818826283811 202.6567027993424 -7.839708699029217
232.5784315904915 204.7583376242638 -8.679466004137211
233.9485931129067 203.5580533658584 -7.820625478803485
233.1240403337095 204.6345405008556 -7.751070967107989
229.4458218347357 203.801104759809 -7.788097930156264
229.0479410456288 202.5976518759353 -7.895362488921897
230.2628331314381 204.6448593802189 -7.839368487560106
231.0797005592763 204.8252172325701 -9.146275452348876
231.2183751042646 205.1407427125108 -7.760780226783003
232.1254653356336 204.8134010597916 -7.728748679229629
181.2224636090332 149.638303101936 -7.866204692107829
183.3622181458293 149.5246444875555 -7.819407708116525
177.6638592728281 150.3016793861377 -6.591865348686815
179.2296352488717 150.239130483019 -6.599721497160546
176.7020003795797 151.2130788898644 -6.797837148476832
181.402725197414 150.5313153589711 -7.065790856462593
183.3269279841774 150.4874580113244 -6.797033224090439
185.6052482639411 149.7853396349956 -7.714865530443127
185.672772062162 149.7668261310951 -6.496251360788769
187.8055253121919 149.7826052483647 -7.833356186280963
187.8712139616596 149.8903531873323 -6.542922889841654
190.2044043409097 149.8407670327956 -7.831827348742737
190.1185444593334 150.1831411807661 -6.664592383681523
192.3431098341762 149.5057848354608 -7.813634688757306
192.45606433043 150.0420707805314 -6.584978943972216
194.6221445386012 149.3430292729101 -7.814567318435152
194.6168964905298 150.0514306337159 -6.642122231994851
196.7960268206958 150.2466323728521 -7.995637902674685
196.8247350587112 149.7913339521326 -6.504455102801266
198.9766557723825 149.9353097695078 -7.939229556660132
198.7671656539192 150.4610627931112 -7.092991012174844
201.1870309041274 150.3334117294471 -7.880018916508642
201.2637929337639 150.0676131371514 -6.581914687210816
203.2351941848403 150.0502554404246 -6.540753018311076
204.7797441541833 150.6016583908786 -6.739094502837323
205.9867865934007 151.1090358097431 -6.554519889702485
175.2955607571144 151.7470280947499 -6.602526242299946
174.2205290063204 152.7482045733493 -6.675225693629406
173.1655501827606 154.1738715035228 -6.933798813221165
171.8858974838176 154.9480957351603 -6.598077315598026
207.7868006666814 151.9259439201619 -6.588853896989186
209.9068219455308 152.6498571638186 -7.004663126571771
209.3461049874848 152.449767550532 -6.403154220944883
211.438439489592 154.1803666475344 -6.557690483095792
210.3863451905511 153.043368319487 -6.339583800775259
170.8695905406756 156.176784457882 -6.588468074840364
170.0254993231123 157.4282353861469 -6.500118736677024
185.6612096952882 154.5339374763975 -6.509447843673203
183.3722341697305 155.2369697213538 -6.908407205071765
187.9219050664421 154.2492626792801 -6.562584427763675
182.5741040938688 155.9724434578645 -6.701676011654186
190.064824357342 153.7855475575833 -6.753897751386749
192.387734325469 154.4798051496196 -7.830074059357916
192.4165478646858 153.7064187438618 -6.751452794699572
194.6412453564072 153.9344540172488 -8.02422265212531
194.6641758779603 153.8700826033973 -6.578922497480894
196.817650983261 154.2096323243774 -7.803235202401424
196.8359931462276 153.8575812373786 -6.518271449844396
199.2156647693175 154.0018699532852 -7.969053877603415
199.0229513538916 153.7790905839156 -6.665939322439085
201.2886337554916 154.3164972456592 -7.899321555394543
201.4580386672681 153.7912270775653 -6.738044310335265
203.5877915105923 154.0570729989668 -6.603362998563078
206.1074647194851 153.9961100322294 -6.82060590308263
208.1142390621143 154.88297507969 -6.648294740460815
209.0521459676221 156.0061312561338 -6.529718558786795
212.9847654555124 154.9292203342063 -7.578775046958289
212.6920072673238 155.2058282779996 -6.566395438272307
168.9496681904057 158.9169529513853 -6.482381240830692
169.2876317369683 158.5359937661625 -6.158266188033156
169.1258001050893 159.5828868430603 -6.10084646257493
180.7043967015742 156.3889706194255 -6.595173897345799
179.227591415982 157.6122101856684 -6.457468746527028
177.9052945157487 158.1526033518662 -6.599940029685756
212.5279075937528 157.2954043010463 -7.5127107229459
210.8029081259286 156.7016696970459 -6.49593073064078
212.8538747084795 158.1260548815367 -7.00359794210645
212.4045617681493 157.5693545105211 -6.390890877962177
214.510884424221 155.9674587437287 -6.523084894595613
216.1456542951493 156.7745734841635 -6.589537761187664
215.1063533528362 158.903471582308 -6.553887198638604
213.466866639612 158.2124770905967 -6.477609564884631
217.2499790765234 157.5195685667121 -6.666265759220627
170.5580179861077 160.0267618451996 -7.202548468802065
171.9512015854047 160.2764535003434 -7.238406515472786
169.1320912364214 159.9146271938404 -5.980965948910037
170.3896374145064 160.1051671901575 -6.309173160130854
173.953490081639 159.9556557241217 -6.86385888353553
175.9613017839623 158.3958976698612 -6.58072252446021
174.5321111151812 159.5770461537991 -6.257824145192474
173.4740903657805 160.0238978784693 -6.256444334851178
172.0010726776519 160.1194180167648 -6.333081099588234
216.7268382390849 160.0230317834131 -6.664156238453622
218.1437210784657 160.8218102966294 -6.653595330755853
218.502170796836 158.4195654102442 -6.657070535484499
219.6856169168944 159.4334527277047 -6.666807935820651
220.6871085823265 160.7904448604033 -6.784788913644038
221.9975266402038 161.5995231807256 -6.645636588484575
219.389488071025 162.1211056580578 -6.692038281798194
220.5615781143166 162.9692393006896 -6.564779022901286
223.1166842733033 162.6831879262317 -7.700729555056355
224.0011065609543 163.9015357658206 -8.507864482875377
224.1913224250182 163.7852541387147 -7.600776260049185
225.5980701966032 165.9018922256786 -8.934378233783116
225.2879928047088 165.1410472151732 -8.60863937545899
223.1518986547271 162.7329324158105 -6.656968297382896
223.9066965674537 164.0208373552928 -6.759612152686828
222.7754648357298 164.8493813970409 -7.541047958753936
224.4969633864808 165.7346423492535 -8.564810619097916
225.752314268163 167.0137192854675 -8.579340487215237
224.063086375975 165.9853491715247 -7.607671942173541
222.0509666578153 164.7172904601279 -6.991788561521879
221.9450426364904 164.0295592672876 -6.470823019691377
224.1557177510237 165.7170686232174 -6.600001330364428
222.5298497467666 164.9689739171002 -6.481573090359338
225.0263613536671 165.5558972380362 -7.758375680141661
226.4108716112219 166.1736470907639 -8.612585402510224
225.9550953500647 166.461142138536 -7.76019716798459
227.5970915229569 167.4996673013753 -8.506392373693417
225.2944037776269 165.1250297092443 -6.708765885235668
226.3681541632099 166.2082262003224 -6.703610704104925
225.5164493595796 167.4393157345951 -7.607389222224482
226.6504768931488 168.7232852581861 -7.541089278355236
225.7800675446776 167.3461063293908 -6.604290470159647
226.8261294302654 169.4175169412198 -6.982106109674207
226.5318048133448 168.9684754143623 -6.48029586370772
227.7132866356578 167.3094210432992 -7.600059792769189
228.8917365255269 168.2316246582587 -7.689095040437599
227.4795712704703 167.5908063456768 -6.758717696510325
228.7636941368999 168.3471566779081 -6.658037739000757
228.363433122462 171.0604546264671 -6.619211890647698
227.4748567864088 169.5530403441514 -6.467133318625236
229.8823351943303 169.5581804667261 -6.64787348334487
230.8354867533881 170.7049823319745 -6.671818639359515
229.2640095786919 172.2243829904268 -6.568634649769207
231.788940174687 172.2120982876483 -6.731948656761522
232.6173761274589 173.162942079455 -6.489865408338502
230.6589654949287 173.2380155932539 -6.690483975113381
231.6953174027016 174.0582649215806 -6.487504751452436
233.6923997775846 174.5625085494668 -6.385971807583076
233.5829496271826 174.1527705437913 -6.136063566955456
233.0683563014703 175.1812952740583 -6.386562325592253
233.7202233675787 175.2151009837327 -6.060337467060826
