911
202558.9392643308 160794.90583426118 -12580.30523824042
199615.5962568511 160870.1391207874 -12401.53090873299
204232.9967102607 159394.6975084718 -10790.029277881142
205526.754980489 160872.5468988574 -12589.86365506555
211961.35377291008 154806.538065751 -13281.42518410776
209041.17646367959 154819.39513270068 -13819.41997901142
214860.0323217914 154912.16903349978 -12646.83982304042
213777.38241766382 156498.2022905646 -14911.30429726111
207191.6162544173 153260.1764101581 -12115.5663074228
210129.157251564 153183.71770418738 -11612.99505903701
207437.9329018892 156542.7526595674 -11146.38319006435
213044.2307268111 153228.5747102708 -11031.32458245412
214557.2285776982 158185.9700475614 -11472.082578667701
209550.07381448228 159320.94581444882 -14282.23895470467
206903.98988450118 162264.9011776134 -14289.165130395579
209823.19761421668 162500.4369530329 -13903.53141475291
212704.77400688798 163037.1755379973 -13410.67038570054
214187.8406441301 164836.5700029379 -15098.16558335864
207203.07880044292 159706.3893400073 -10694.70499473073
208407.2207770773 161174.6266031873 -12423.63455593235
211330.7705448971 161676.7927043953 -12106.9600013071
212114.5191790554 158795.3126633369 -12876.60041618777
215527.75446820998 163615.2499725673 -12736.61526815025
214049.3929735658 162269.30348839032 -11650.94619840018
200613.03502318132 150477.14593196742 -8952.275482803989
197693.0219041989 150845.503833461 -9186.251112247677
203539.1843506849 150166.7413941298 -8588.08115957807
205361.736373737 151713.1131429488 -10383.76818202327
198810.2583545211 149169.5834090581 -7215.260896752744
201707.38134516738 148759.71285120829 -6790.483978591151
198416.2880626907 153084.1598298431 -7330.841265803295
204639.3489613136 148533.36896316792 -6393.6868993362605
206079.6516394767 153683.0809172546 -7858.169246145716
202228.9722897298 152897.293189143 -7564.9975371643395
198433.1667233934 155173.6287738904 -9873.253304417176
198215.56189717568 159349.2001307645 -10531.752460482441
196914.7430427475 157706.7917737851 -8519.77200495595
199921.9260141348 157690.0307750013 -8778.462868672
203296.82442826979 154749.40077445252 -9634.844093012134
202922.7256622018 157753.9531945964 -8794.952444501889
205913.9517162031 158071.46831312848 -8760.092097503064
198566.6805869377 156015.11028445073 -6668.318208788956
201536.986925091 156106.4070085636 -6741.812572281212
204502.56156849902 156363.9253712038 -6688.84333717692
208310.8982761218 151573.5072801023 -9929.950174924457
206477.57398843952 150009.9809263632 -8181.92363148348
209869.283320362 154469.5545187153 -8127.459771574692
211248.2455446941 151546.65031015422 -9397.070183925123
214142.5795004988 151648.5296817605 -8774.607097449809
209413.682689682 149962.2877845795 -7679.690973218571
212316.0939467197 150012.3812936607 -7068.857987491564
215146.645666523 150228.14664191718 -6442.89864468756
213754.1003882288 154024.4817725093 -6789.6103294467175
211284.3754147604 156354.6411731944 -10428.77543641591
210096.0299239349 160181.2960847473 -10467.77850504556
208830.8158715455 158480.929425677 -8543.681673997366
214285.64530331708 156383.4030142972 -8987.66141488097
213012.53756322028 160796.7407474081 -10165.7564973548
207467.9299669418 156765.16612853148 -6552.702134567342
210389.0220978196 157242.2728696358 -6321.084657164258
213347.3956756205 157900.06940960028 -6139.794072737349
211753.03514269128 159029.9589108907 -8283.739899831342
214685.80589939922 159710.50575847639 -7990.049601770613
196964.3803327308 174105.7076259953 -14938.53052154453
199270.1353225181 174193.0720649221 -14226.16282130196
199189.5466903155 176791.7354453586 -14808.92645101956
204272.7379918529 175144.1221520857 -14918.56490758695
201523.18319618312 174587.8783354558 -14793.947670311001
203173.8259453135 180645.6308707868 -15043.5090987153
197911.93197890688 173793.7101192632 -12227.65674863041
200372.651592226 174049.087915107 -12160.99928491949
197933.4288059255 175828.89848288268 -11976.82570702305
198358.6319901982 179614.5301740234 -11830.62280972824
202990.5911771495 174516.2847351871 -12313.18456589831
201819.9135545134 178038.8627796691 -12527.99861194992
205266.92394033298 177458.60943289442 -12178.74664710835
200789.6550449649 182824.979789564 -13664.527084062871
197352.77043688358 182890.1928570253 -13420.80109133054
198813.9404531789 187184.74175043078 -13453.77520636616
200991.2344271099 190869.3157363105 -12989.222939325071
203602.5900582355 184822.50694857002 -15033.70452327341
202497.25172923438 188917.21301938072 -13851.69327672506
203502.6805125569 192235.3951148156 -13774.14094912966
201825.0532071827 186480.6132313974 -11037.04534831188
198167.26065029722 190338.7985801196 -12615.337109949049
205329.74776310122 186396.3062747921 -12618.1038877656
204433.7291473143 182191.2983748378 -12170.99183605643
203179.6191817135 190889.9083785616 -10790.40461659481
209946.38090563938 176882.77147848502 -15082.79248522417
207129.0310464752 175943.9100168224 -15011.06828472083
207228.4524193018 179642.24916815228 -13930.995748894271
215438.9541813448 179255.759826625 -15202.78868486683
212713.3035956995 177982.2285773445 -15132.95794673184
213348.2968948768 181521.4122062059 -13716.74332836635
205880.202723305 175197.63629476257 -12422.69331421837
208737.7217092569 176006.6908562995 -12513.24740065955
214310.50223398712 178108.3831366698 -12619.15744792642
211563.7356490731 176956.752842676 -12583.617811421871
210777.2723522895 179483.9600394838 -12139.51407238572
207021.1432651812 184494.4490483609 -15038.5791835703
208622.6482400673 188199.3240507372 -14272.29185047053
205807.0924944587 190005.5670956083 -13059.407117388171
208541.7222800145 191808.8522699716 -13035.482439628251
210189.89271764868 183547.4975623814 -13437.52029400394
212985.773546221 186232.8097315632 -14100.72942185698
208557.74834094022 186453.7248103569 -10765.73045370302
211043.519922483 189262.6263299085 -11749.889329174779
213410.2434322196 185567.2422612999 -10770.720026172241
214261.9453398431 190325.9746080453 -11995.46172955557
199107.5232207007 173571.7618114426 -9793.610349456601
200119.65411874471 176796.0079799041 -9587.56919770831
204627.24388584308 174450.68308805238 -9833.480588062615
201788.3657514488 173929.5113994013 -9738.015054113861
201620.54867735278 181287.9193968335 -9691.815191647356
197880.4249523106 173110.52992201998 -7496.585953622501
200607.50897613761 173379.54678688588 -7321.93775040372
197058.3251891453 180977.95302374 -7236.805645242276
198795.70829097638 176086.23891957398 -6256.878141352634
203162.97374162282 176768.58801571932 -7854.444085440924
203391.2336771356 173825.7762914583 -7294.8765418844505
204274.44705254878 182239.2118188444 -6534.2304754135175
200747.9375144621 180667.9005563968 -6000.263055618182
196936.3038581592 186795.24902696282 -10178.596670308609
199167.9507409318 183864.76580155722 -9518.060965717788
200449.43607722688 189837.63349639092 -10460.501882924329
197399.956118869 189571.09260138212 -9980.071389567864
204576.93826629012 185265.33580426432 -9071.24814294189
205118.0684705115 188597.2116932368 -9877.41594328307
205040.8779416031 191019.7110083561 -8669.70889509361
197345.85220419522 185604.5654314402 -6869.1233961062135
199729.2074537489 188876.1011076782 -7769.142307738408
196734.25855897058 188870.1491308787 -7294.587099687438
201248.70691468398 185403.5954284298 -6830.76679654134
204158.0758492656 186640.1733677123 -5983.7991634273385
202528.832462766 189627.6338671003 -8239.470996307662
204462.898091961 189684.60294692699 -6139.120252907266
207515.8748825052 175154.9924803976 -9937.95707392364
208344.78165923498 178307.854144271 -10617.29569964157
205759.8582253946 179454.6512230422 -9124.172046452577
213196.31636162152 177015.941360622 -10118.89813427955
210377.94400134872 176019.51799474822 -10013.78821268717
214739.9439643396 181010.77185663392 -10076.038124489569
209209.6899429422 175101.97954044052 -7483.339984279403
206320.1054327991 174386.005990601 -7418.738451109425
210471.2727362734 180026.5773948888 -8339.4321683445
208337.49900089588 177409.9459484434 -6981.711913686995
214834.3391173683 177080.7841491162 -7593.607218034543
212048.5119884314 175960.9232142932 -7531.436560716303
213745.7504965766 179312.5867258752 -6939.734387166256
207614.9836454372 182449.9272029195 -10439.133895828929
207794.06199334058 190239.29688430802 -10277.880210259409
211045.8678079581 183114.2713073381 -9857.635750257537
211474.3396239976 186058.8372156187 -8430.25315671243
214617.5922941003 192086.0693895627 -9162.8117920975
213168.4084809734 189118.06399908222 -8331.28149056245
208054.6306226621 184556.7526624738 -6639.898226441512
206764.28819507858 191304.9754532778 -6576.800077456486
206982.5291494126 188366.72058443 -6561.118601780769
213744.9833381845 183331.9533095338 -7309.340330786836
209995.7262415808 189409.5957358627 -7332.093651050367
216653.3121356915 156689.05809736528 -14223.22721672234
219481.7530383251 157019.8793936494 -13414.87161401049
216149.0773038207 160252.9341116196 -13608.01784878214
221240.6007001807 158916.65217492 -14859.68721705158
223940.0460403589 159554.7236725454 -13802.84985754693
217733.32349110142 155172.6976176411 -11920.041970178829
222243.3655676733 157521.4769699495 -12469.0030648161
220541.0133841059 155549.3619734712 -11038.314877924551
220802.6132236412 160873.1743207722 -11948.56098878926
217005.14246339962 165547.6789653045 -14453.284852987199
219800.5054982557 166480.03330221729 -13674.01667164039
221101.3269772128 168632.1790742027 -15135.258324142489
222855.1860557053 164207.0649566004 -14442.13213515507
224651.5826483154 172358.3089787307 -15200.03108638509
223592.58559253498 169817.00012575492 -14099.74590557155
218265.6450683275 164158.07951096637 -11766.58744648618
220976.0782821366 165218.2794667476 -11256.93454497368
222370.13913996858 167468.24056000612 -12742.84080480601
225526.1197904881 161747.42927913458 -15045.04308069473
227920.68846055638 162786.9598054796 -13648.96820495025
225960.78129716552 165731.3388375578 -12864.24364448035
229183.9614836765 165280.402492666 -14543.6868002129
231073.9022799173 166676.7551685313 -12715.82645248459
224856.7259428211 158210.9796170917 -11387.689074337492
226481.2463822612 160426.08950502862 -12584.2538271137
224750.6435578205 162283.1386874624 -10894.0212002728
228785.6207055913 161502.25434310682 -11182.233514542499
230046.13433080062 164006.1173778851 -12010.57792998594
227136.97055566372 168586.7853103287 -14556.51645999485
225799.2148574329 171298.01076887408 -12766.50915479264
231854.6869660459 169591.0577116372 -13317.86471127085
232201.2119757538 172148.1788896381 -13887.72967767223
229872.67435279052 173859.96805792372 -13253.68471870696
229530.3707262561 170590.8327030046 -12324.870204912431
224785.5664480316 168765.5857145111 -11587.485989557379
227583.8952321322 173034.6288994871 -11148.11332568751
232655.1308389134 168219.4514133316 -10732.45556294598
233162.24544113522 171949.7804091124 -11565.03452732693
215964.41706487868 153407.89687868638 -10360.72071476857
218779.73122706352 153676.9408832299 -9552.840293676723
221579.7799654631 154127.0078224944 -8646.915612645242
223279.4824012053 156112.6751293797 -10039.828768351439
217003.05487109572 151884.85780580872 -8019.311127717543
219793.11774089688 152297.7022872272 -7161.829233883917
217016.2282823077 155443.5280149362 -6631.001426739398
224252.8184370415 154795.2449911634 -7563.85980926832
222470.2565039807 152874.71327146428 -6197.574323437831
220432.49541570002 157927.9029835364 -8043.692294953383
218033.2569846912 158179.8412816895 -10212.651966482741
216018.3141132188 161995.9775913969 -10302.209315967999
218793.9146039533 162449.06647986433 -9325.66119182005
223310.6643233051 159370.8716766888 -8668.22636849069
223577.54020157093 166352.9607959026 -10343.260367728479
221634.9645725315 163517.6028806116 -8752.584001684732
217516.80361099762 160414.720989882 -7549.659831005857
220347.28466874838 161340.1546206373 -7054.525898694144
223049.6382107011 162421.165866204 -6371.084284159539
224320.6038158531 164777.34573235322 -7936.0984363593025
227321.80163576998 159115.60167904658 -10142.44317157794
225849.5620104602 156872.25365780818 -8914.938944969597
227732.14285872088 164222.70538842262 -9414.035117544287
229606.5403793809 160162.66180129303 -8622.468827202101
230884.3709455979 162706.2715431793 -9464.225819677527
228207.23622387438 157865.0902004086 -7564.802069160197
226760.66065756851 155711.24908545282 -6352.395480943197
226884.7900716404 161041.606723301 -6908.833177365762
231524.3413560228 161493.6475573039 -6950.892171606119
230244.99244199292 158998.5690187326 -6035.475617074713
232659.43308213388 164158.07621164338 -7578.9578401600465
229809.94199080998 164611.19027503429 -6483.907481444832
229034.8767315915 167562.03310172068 -10354.77512012448
225937.7951440862 167744.3185518898 -9207.868806358412
226911.55257454808 170342.6617134423 -10264.5938128366
228587.2339394521 172150.4007239186 -8707.687642704788
231903.729435282 165402.5604922149 -10183.22086023623
234437.2427097014 173592.1444344164 -8810.046479032248
233997.4196060833 169904.31249917732 -8610.56787599871
227103.3169955739 166720.6441203719 -6747.357901257294
228039.123224052 169309.8370708155 -7661.829422227715
229473.0971760717 171362.1172157871 -6282.42500060809
233445.0869879719 166960.99539713192 -8162.2061700694285
234569.3862676972 168689.5263423292 -6167.118270973049
234987.7756163618 171747.0034224721 -6414.713981107841
218033.6489076975 180667.6324084594 -15123.648205588459
220611.854077771 182220.95979083888 -15157.073780404611
223315.27250647472 183384.0190306033 -15131.35270811093
219507.36773506508 180863.1507822409 -12635.02371911572
216982.0955224508 179439.7675128154 -12617.50881650757
217462.3569648469 182261.184892516 -12335.870868222211
216024.8562902341 184590.9551268272 -12258.27111781101
222046.66937313642 182258.54216906798 -12709.054809231951
224920.192216439 182955.3231202697 -12678.363414008689
219635.2631867293 184344.5266059476 -12231.60436016496
216356.98980884062 187714.3254057471 -13259.443337415069
217417.1330036117 191837.00162658418 -14097.93011068065
222833.8174618493 186481.9920891768 -13670.96060755844
219545.8570574213 187955.9932121098 -13490.26906095237
221401.372745391 190895.5030539144 -14154.70233933434
217814.6210398081 190836.1820169717 -10793.48876569624
225726.30279533478 185365.41441135408 -11213.8850130597
225256.4799226404 188563.53445506762 -12928.50486328219
226968.41664772152 176761.05806313982 -14458.634460430989
226599.05523736132 174124.4300831921 -13755.76516712563
226795.28269421478 179220.2374015055 -15006.224402668311
229702.98214373158 180361.1155937897 -14271.63630962324
229994.31149583252 177205.3168389099 -14425.133962704309
232699.27961454328 174581.717558866 -13551.91712058959
232904.0076923404 177238.249428376 -13539.34793625758
233007.8129023327 180095.4172608325 -13366.74789545747
227923.9308501253 175910.89275492702 -11921.61935643634
227030.6519706443 180885.3149626898 -12744.60442820086
227798.66037717552 178514.6460640472 -12357.290132671711
230862.921059937 176785.4632943165 -11594.06992999752
233699.44922008592 175443.1455123664 -11164.49783786612
233837.90271128502 178431.1281489427 -11051.161055928971
233840.5858609379 181392.8678618728 -10828.090593901261
229024.63337523222 183712.6560287714 -14227.88885059145
228246.8553359797 191055.189495826 -13942.55471445789
232977.01384389692 183045.5924174721 -13140.443664698782
231947.0380179751 187656.56617229313 -15133.05019121839
231712.7880252979 190594.71260322412 -14785.767154086541
230279.2932511529 183248.786904019 -11070.93065993402
228717.846427394 186764.32486737848 -12836.66500125763
230607.2764649515 188825.3759474713 -11573.86484999743
232850.4433075678 185975.8156468674 -12844.86934241828
232624.02592885352 188915.65014825598 -12586.06157830635
232357.4567465771 191839.1270071998 -12262.887593945261
215926.0889267265 178237.7767850626 -10144.26247743102
218573.036365393 179620.6379300339 -10139.7854721992
217673.6668857611 183521.2366912633 -9184.96514826535
221206.1259792904 180998.8130791192 -10073.63849497297
223732.3329797282 182234.086668993 -10322.999249126618
226351.74566098602 182223.7622973827 -10204.1894511472
220192.6254824145 179754.5601731294 -7630.276924698042
217534.2420814197 178376.1429164378 -7608.722367935622
216755.6500374972 181481.0869431464 -6286.264899935494
225464.3139751402 181983.8633516577 -7750.218454979055
222804.2673761738 181046.4949141545 -7724.8378741271135
221449.298008186 183836.87943301912 -8514.163091295255
218967.2300722647 187109.5574756339 -9948.426946148636
215867.4588874607 187763.86789574169 -10023.29633154895
223233.42438820732 186684.8755572503 -9620.463994514548
221340.8032503335 189504.05543465 -10339.33804647346
224317.47684334122 190921.11199121008 -10325.76010358862
215829.07818893652 185850.1936175633 -7386.0259559852875
219821.8184847772 187005.1756626 -6347.101177145829
218888.7932508885 191139.31008861412 -7072.570840119932
216353.1070320695 188773.85065775248 -6498.629956240798
226091.1593662024 185123.735165815 -7210.053566040132
223050.4771225907 189394.0286108035 -6289.736489054875
228610.8937314943 177826.0815881459 -9744.905034561281
228862.6037259663 174929.3571908655 -9259.36325930422
227761.51450372048 180209.9906266478 -10348.60391979829
227477.6332103344 181368.8430129867 -8381.967587926074
234629.2345069402 176767.7002575644 -8721.39002504603
231898.1323156454 176044.3544827417 -8496.154835998273
231146.592585175 179509.2669234028 -9734.435315294872
234672.6749863736 179728.4700929098 -8512.923146928855
229494.68986206612 176866.8942449604 -7162.090933136238
229715.93000004799 174113.2479403964 -6836.5870625673215
228677.9007652601 179643.7347103151 -7446.796456772067
231288.73556215919 182332.58541889922 -6575.804636479996
235212.23292238 174863.6101186109 -6503.460831716954
232497.1854845669 179537.7712952833 -6731.776515091361
235282.33540921682 177961.26276777821 -6422.704648714365
227572.7715861077 189362.3059365864 -10198.0624980234
229727.8762087212 192011.3086715493 -9282.754809080856
233724.6739161503 184350.5821167714 -10578.877187829241
233519.5799776119 187282.49379224432 -10335.92666243139
233273.2940873756 190213.2299929609 -10019.76312653583
229616.3065912828 185477.73342882268 -8002.956140157414
231659.6321221976 188576.85788792718 -6881.00033685961
227073.4113644711 189541.4254393759 -6621.5572742143695
234583.293513825 182697.6268491389 -8264.854932347125
234403.2386280964 185650.5909568381 -7995.357798327943
234159.9801232794 188576.4448357451 -7718.525595029014
233885.6867774397 191463.8041535549 -7396.019201651782
199588.50189353022 147232.3059300166 -4849.632063641389
197025.5357350363 148170.72291972162 -5854.373565225495
205796.05299713588 146942.56822833008 -4173.4032671128725
202815.33149628792 147044.16829129079 -4563.0718530761005
198412.9340266784 145273.1328256294 -2314.6931435274173
198866.30147609382 149540.81353643822 -2784.4573874844277
204195.4534875101 145276.8213188278 -2112.0784631339598
201218.3139362154 145430.2598259693 -2491.507656710321
200502.0776850792 151279.3321472332 -5060.3408612595795
197193.5251728988 154477.200579622 -4651.836642998903
200330.39587453767 154396.6612720261 -4525.223718650284
205895.0944057043 151747.1160350037 -5167.154654219494
203171.2453263418 154764.92744576608 -4678.1649912750945
206069.80023056638 155062.8578885905 -4509.227628818761
203355.3071885486 150669.68156292778 -3647.2098297705797
198610.1084798509 153432.6535733042 -3320.600595264504
202995.6030954149 153048.7330559462 -2350.459740093643
206079.6467840399 150660.10937085262 -2286.5172166119573
204522.5702336622 154040.2141425402 -3459.3594526339907
205808.625387431 153252.8873315022 -2129.734333870114
208597.4623556282 147025.9563843559 -3847.5168118812826
207583.8321372552 148430.24577311228 -5937.403307988489
210420.0564159782 148492.2620328626 -5498.365984990528
213445.6440988807 148349.9631160341 -4444.022842890493
216572.1948539169 149027.66242908232 -4170.277813311338
211019.8246331456 147204.17647872277 -3547.710960588843
208847.777849908 150247.6692285884 -2920.7281655165743
212743.6550808869 146531.000572096 -2130.19628630872
215506.38393859653 147267.017563274 -2120.551260997997
212949.4450152698 151526.76783439092 -3326.135246422561
209396.5961326537 152417.0679927287 -5782.560587052413
209544.6982941634 155636.9093971399 -4361.839240638977
212322.6803468506 156172.9678481007 -4228.838688453907
215240.4716000386 156891.4780534937 -4050.211300234356
216208.1393343707 158519.3950340977 -5748.104254357402
208763.84065941809 153786.5106615163 -2111.679943158841
211611.7493016559 154412.0350368947 -2132.289211455885
216587.3377036165 152619.9862720965 -3618.208846923239
214348.7604857898 155086.49146468472 -2075.3110707900946
198369.40270498412 145568.505092957 -1005.515740390871
201521.04449862 145675.2230946569 -1016.685723071478
204991.5305233246 145776.0772327787 -1013.287687199067
196883.2206661324 143484.93975890218 0.0
199854.9802112439 143479.5596833799 0.0
198555.7690771859 146019.0481996352 0.0
201440.1982491091 146073.21444134688 0.0
202824.5341772665 143588.90273922778 0.0
205787.5013771408 143820.6962049302 0.0
204079.0618286596 145742.82835825058 0.0
206789.0864994954 146551.8793080326 0.0
197288.7915730538 152415.2094928178 -2017.1428845271348
200258.52979092492 152500.6770097212 -1985.1665983443409
197145.0415931351 148408.4675958363 0.0
200345.2858725345 148666.8414369598 0.0
198730.0061317981 150903.6794322918 0.0
201716.46382801008 151146.1392874743 0.0
203553.9888402865 148679.4490977156 0.0
206546.5635587362 149368.56516967982 0.0
204691.7019080332 151501.46407062872 0.0
207182.817194449 145494.5300189914 -2022.4996059951939
209995.0236108898 145813.76380778578 -1906.964638133585
209541.31110680502 146171.5956151312 -1048.23556181418
207387.5954112806 145917.64252857742 -1000.1412587458069
212110.6015277583 146700.600645464 -1019.69916958078
214778.9580753174 147504.03996286122 -1094.41418137508
208734.4328391196 144210.5905460848 0.0
211652.8736767337 144771.449836551 0.0
209544.01430241112 146961.46940120202 0.0
212469.2440409439 147627.5133003495 0.0
214534.6375210525 145492.6341812582 0.0
217367.1409598718 146386.29654462388 0.0
215116.8344457097 148394.1624362617 0.0
217307.0118866382 155904.338298809 -1903.306428692367
209936.0962601822 149808.3951520315 0.0
207651.22604187892 151970.3895802152 0.0
210595.0264525094 152529.4535207562 0.0
212762.7617222327 150467.89156048629 0.0
215697.1093070795 151258.2810247838 0.0
213511.713117343 153215.49333264888 0.0
216394.3343780764 154032.42180255792 0.0
199446.8242960908 172907.0014783996 -4865.12413531198
202160.4876550644 173238.8732893579 -4962.972130819013
205188.68210635072 173705.17381863287 -4980.268881845237
204293.8514126849 178016.6038423161 -3954.378642737832
200535.13112213652 176412.4882322609 -2823.4508733463063
198229.2011755156 172467.4035352521 -2543.277817001866
201095.8554522477 172679.01335642757 -2472.7475030368028
198428.1835637362 179627.6505395955 -2775.38919872682
201532.0185107403 181091.92195130358 -2531.1508300931278
204027.864585139 173076.1811210738 -2561.2568289969818
206943.1526482195 173502.1041126046 -2480.028925732918
203934.6408054117 175076.98573329882 -2039.8491994762069
198767.6231459685 183406.2232896433 -4533.641117033011
201963.5923726078 188264.4576252786 -5329.353806880159
198866.154382043 188104.4726559228 -5182.912296174157
204083.5826004729 188707.8370877179 -4131.663667822466
206199.7825828433 190015.1354996609 -4468.917664046914
202469.2061973876 184471.0191647826 -3313.447092407127
200015.8067412905 184659.8369398217 -1897.590538159822
200424.2607917773 187300.1762755314 -2754.812456336137
197566.7756110286 187495.7031234131 -2618.927038764066
205659.68603922368 185878.7395939102 -2935.3165545966344
205338.9591546169 181666.66627469411 -2709.648565237365
205530.76219358807 188725.2366149503 -2306.7738782321394
203082.6361446559 187504.4878423642 -2241.49609825094
211009.5102966317 175059.8599253431 -5064.901012492031
208021.8375397035 174293.96635010722 -5033.7302104191685
207658.903188959 180662.7584454005 -5451.62845774652
210678.0116426946 179641.38669056701 -4507.716369550529
213774.4900706899 176018.7283599214 -5123.820908631881
216442.0274129865 177163.8145353366 -5069.78451552952
214231.0733068772 181525.2766081308 -4611.391092407947
209908.8187134789 174177.3474744505 -2538.268209729313
207493.2688593345 177042.76270566852 -2936.171268378129
210950.1063277543 177864.3371059635 -2306.7359486016067
215473.98710823272 176093.6877727377 -2640.0283490116954
212813.6483003136 175044.3475603862 -2534.329538764311
214153.9255625476 178993.2368994396 -2835.768534515651
212937.4662129723 181673.7822283348 -2112.4478016156368
215675.61624078063 182802.6761302554 -2365.191684752207
212184.13449388312 186645.4381003044 -5804.581220558006
211041.3181523172 182985.1213651493 -5567.963669512163
211690.5355680695 192119.5903855731 -5962.04585363769
208314.2654502877 191647.2676716751 -4463.365295560228
215762.1450662358 185626.3353489897 -3976.070067474231
215076.5587219464 191634.8086412593 -5691.572953022114
213230.0655031562 189232.2011498289 -4852.067060305302
208780.5502847743 186775.1017343763 -3275.554093188553
209246.5383462941 183271.1432459102 -2480.786666745383
210525.1016076509 189480.58397894353 -2925.639553388196
207898.6751778225 190250.5630399912 -2186.191205387698
209899.82890880312 192192.0194449164 -2270.320109075298
212477.6821869275 185399.0471309161 -2687.3795007839753
214995.4195658098 189146.2212405447 -2425.580633389819
201191.87744188512 173904.72366370092 -1278.506285959893
198942.56185039628 174059.1950412128 -1750.224849303624
207634.9297731175 174761.1789957786 -1317.813963573097
196765.1273205356 171979.0087044661 0.0
199756.5339659709 172153.82789393622 0.0
197983.28829049048 174860.6384861452 0.0
197407.82810703872 177280.7768254961 0.0
201032.759596036 174864.8393834125 0.0
200142.04916767302 177819.2090615664 0.0
202742.5198429713 172404.13723709178 0.0
203911.3842101929 175040.6389430337 0.0
205714.6878498464 172783.3914115991 0.0
204844.1228371219 177330.0899414184 0.0
202469.392614188 176722.0945470702 0.0
206718.4091263492 175465.766616236 0.0
207567.0977913238 177965.4770583347 0.0
197698.6921597451 180580.6805923692 0.0
199031.5439239718 182836.39262753128 0.0
200780.850889219 180958.4853528007 0.0
202893.7606876993 179025.536447466 0.0
198962.1370884427 186620.22577358 0.0
201901.8818838148 186399.7299096091 0.0
201390.4160994686 183794.5288319667 0.0
203519.65157673298 181689.8583873585 0.0
206430.3360027177 182587.9582977601 0.0
205604.0912237663 179858.909586692 0.0
204632.2184913426 187318.9350238606 0.0
204209.88916867258 184564.1890417234 0.0
207186.3924106612 188786.37371053448 0.0
207579.91061288439 185824.08699245722 0.0
210415.3078458646 175478.81381228392 -1265.357553390029
213340.2905707949 176846.5014925217 -1608.800707186202
216192.7897883881 177982.96922847952 -1728.856654722563
208665.5505786597 173302.0371127734 0.0
209502.3188034235 176009.5570184553 0.0
211567.5931171383 174045.08223437282 0.0
212202.8239986898 176879.5092340031 0.0
208347.0269553149 180490.991721636 0.0
211169.22915214102 181148.1278240021 0.0
210268.9113591321 178638.0778320354 0.0
214410.0 174991.0 0.0
215092.3477942779 177852.4611191056 0.0
217173.8631524266 176148.0328387546 0.0
213391.901732108 181805.511351245 0.0
212920.1264050476 179270.72810313772 0.0
217734.152508304 179062.10028445118 0.0
215531.8867464411 181104.9195250368 0.0
209302.64762128162 183248.6815252567 0.0
210338.0639615517 185501.89284772548 0.0
212311.8868153965 184074.3258944342 0.0
209482.6728848578 190627.5887645729 0.0
209861.5803105988 187897.4960457536 0.0
211946.2389926995 189764.3825613411 0.0
212294.8486883289 187086.51241752 0.0
214576.3527656343 185995.2246674624 0.0
214598.50113654658 183380.4929439177 0.0
217225.8917982849 187131.38661237928 0.0
216599.2436683946 184264.00655216 0.0
214900.1566814872 188945.7497384461 0.0
213772.25178328602 191126.5607626718 0.0
216035.5358569712 191238.21420737018 0.0
218000.2438023124 150619.2410678336 -5746.757134655471
218898.91073022308 149670.7974249261 -3898.068326214304
220675.5275033848 151028.460064577 -4817.180636186303
220314.8482219875 155619.5761437729 -5164.912318885699
223191.96268377788 151594.3717868067 -3807.959827256683
225063.49634677722 153610.3697421565 -5049.492866364924
221112.1747365605 149548.3521152483 -2344.07460719938
218311.6800096514 148172.97582244957 -2061.191673848179
220201.4895477216 152810.2843340612 -2958.494888702271
225873.8635178575 152301.4805420259 -2356.040234115351
226181.45053100472 155807.55458162198 -2546.302996934168
223232.25142127989 154653.9539487251 -2365.760873287916
219053.9312496045 159376.7124352433 -5406.237796289444
222093.4863255672 160192.68862294318 -4508.386673697782
224631.1240153342 157941.6276421264 -5303.454157278866
225711.0850290859 164100.2168752666 -5710.092601075904
224797.4660130741 161879.8230707476 -4232.328701676878
217977.4669971524 157706.8527183255 -3821.2947049647933
220480.4498233599 158601.1763719629 -3641.838933231583
222321.265014737 158360.6599746311 -2129.6196910849308
224492.54031630472 159944.8066366404 -2291.959317820869
226735.10749702482 163326.3852466903 -3690.196096795717
226684.1115571255 161691.1013390787 -2044.177274093367
227514.9623195116 154631.2519130639 -3861.863704012193
229015.027631636 156738.6324287563 -4894.205679787253
231832.0160595959 160017.68673120072 -4524.057949263395
230624.3388779866 158011.4828291533 -4089.217287221972
233074.2747864913 162664.1368966208 -4930.702981230185
229989.5606143007 155991.69278902828 -2343.737554095504
227993.721860038 158998.9744638009 -2877.962785093456
230681.741014682 161434.2683555816 -2638.500278237966
231864.3620532978 158354.3057478163 -2277.158153676924
233294.26656501228 160887.65654710188 -2406.370152251027
234405.10509981852 163297.32620184481 -2322.759104981008
227919.5280674706 165586.59161228372 -4414.563717224076
229175.1145417825 168462.9141847523 -4883.955679380575
230248.2397046907 170545.38071374942 -4037.690030409445
234124.72521385108 165597.668537717 -5143.465563157242
235033.9717547226 167569.38036604872 -4068.0472132951645
235515.634576909 170260.2616364649 -4133.803120272643
228465.5156676235 164003.8078762728 -2139.461710625246
229699.6671935794 166669.0791487113 -2456.3067885466394
230585.43709504182 169028.1772516893 -2332.025560406207
235244.5280662367 166030.9067264569 -2454.3232671036308
235865.9085803674 168541.5055848061 -2176.7965207732314
218198.83109621 148543.78512459339 -1011.8072453538009
221339.59641031778 150212.5509440736 -1167.4383924215801
223608.0279800213 150408.87190465862 -1709.5112194816759
223190.64851352642 151898.8332966318 -1341.389328317701
225473.0526585321 152673.5042975948 -1046.833493052864
217925.8310592028 149391.704670651 0.0
220134.78946823638 147466.2871521326 0.0
218589.02370768102 152350.1993605307 0.0
220674.11392169938 150397.7797390041 0.0
222806.08517057478 148770.3584345146 0.0
225330.6535544679 150337.4568845333 0.0
223017.451354247 151246.9183173544 0.0
224820.5261840333 152841.50994319652 0.0
219912.1270621662 156955.0368750131 -1939.636879996959
227277.8890802931 153890.6394188096 -1001.2055928957319
221771.8310138809 153404.20884616548 0.0
219209.3091872966 155056.8027045834 0.0
221932.0671726678 156304.7955512593 0.0
224336.7597245377 155386.2143521714 0.0
227166.85521168448 156730.9079092053 0.0
226740.2836566093 154285.406524461 0.0
224466.8692199797 157897.86105304 0.0
226761.8744761616 159817.3946380418 0.0
228236.1682253538 153733.5855173014 -1678.453750680765
228558.467208393 155980.636784273 -1250.571126026358
230334.46913366482 158209.41079441868 -1605.306542228584
227688.8153800119 152139.8083771015 0.0
229840.8704827148 154180.5718521407 0.0
228682.78472221538 162111.52462120279 0.0
229446.4026503207 157101.7156975618 0.0
230289.5536988721 159323.34266898458 0.0
231747.4569281883 156452.20158686378 0.0
233374.7462735987 158934.5696584844 0.0
231623.7332087682 161592.7399136273 0.0
234699.3876594265 161595.7250161847 0.0
232681.00573961833 164166.7845874299 -1722.1604443598399
233366.94931650162 167387.9879474652 -1460.8826283121841
235609.68419075108 169357.5914364776 -705.6270599924657
230190.94207243898 164693.05740017278 0.0
233393.7057248137 165936.8482096369 0.0
233125.96525758348 163496.00080634688 0.0
231211.4600996374 167505.2231483312 0.0
231700.7578264843 170454.6403900123 0.0
235653.8316922824 164410.822752062 0.0
236328.8198147905 167302.3283506255 0.0
233897.75011072628 168791.24104002942 0.0
236760.5250379479 170239.7908527275 0.0
219132.083588733 178464.4055092496 -5077.079020522734
221825.12612526192 179765.4944625518 -5087.554351841391
224552.4565511469 180939.9481108132 -5192.5054184249475
227661.1457418464 181512.0661188876 -5750.6186749099115
220800.4342608297 178539.6268977894 -2611.988913340878
218139.2771040814 177302.66732169728 -2607.887779047634
218119.5285077146 180231.8153516112 -2722.8946328545712
221637.29927139077 182715.3316387591 -2587.621859606919
221308.8781211579 180118.3000291831 -1684.483743293289
223562.34213999368 179753.12329464132 -2654.827807144315
226411.95857504828 180767.0923716811 -2708.086937798776
224261.77028182932 181536.9118219285 -1694.75228721684
218962.2630268091 183171.0378456502 -4616.579595811885
222846.0545101236 185201.14232564502 -4548.269273498414
218955.75205012382 186912.41398416302 -2711.2048546099936
218673.87380822562 190754.79206933558 -2995.86707078
222459.28224057742 189039.4235222351 -2479.594326380997
225456.358647164 183744.22257189802 -2973.650013605769
228642.942538584 183661.86917588022 -2951.953481981106
225523.01343175772 191626.5928115109 -2921.972778250222
226134.0199315867 187537.7771558078 -2859.1864180973066
230369.6335214355 173156.6382856585 -4547.529621728297
229521.3545886389 178677.0827181258 -4927.132797276943
230250.66626875888 175931.5355898042 -4576.053425412256
235764.67000386858 173290.6099657974 -4366.033370925987
235863.4732814508 176247.8038283179 -4327.512291568308
235844.51092240142 178856.87719952158 -4217.890155989741
233177.4973649011 176811.5330877272 -3316.437908976849
230987.1064763475 171953.0122113772 -2423.95215204348
233252.47283546889 173608.77403816552 -1862.295009656966
230385.38064146432 177691.3502202115 -2423.820323163032
230980.8552085541 174639.8299257393 -2329.025619412133
236417.45657874798 174708.4941628681 -2190.6433327114
236284.5809684363 171806.21505027488 -2137.219222274518
236369.7962529208 177700.0237564443 -2372.19059221319
234984.0287101505 175164.8391761942 -1840.745321859001
234923.2806869962 187149.2644210642 -5364.602600588086
234647.4883314064 190042.1012394627 -5100.046592803135
235401.50907130569 181065.9951636956 -5548.311857700925
235165.816819437 183989.1014121752 -5653.5808519226575
229170.18608543632 180459.74788764142 -2710.739293118516
232417.2122415481 184724.2586578744 -2979.001009181403
230549.8946282269 182043.0088473621 -1875.054161976548
229221.20510115748 188611.2875215665 -3342.665879416431
232315.72131091598 188273.2086493992 -2775.2014474112593
233193.79462341082 180550.22343679762 -2862.694956679796
235955.24888922198 183450.0165848545 -2752.203321226962
236223.70128482662 180585.9583537489 -2494.2240204793
235390.4437508265 189348.63874073137 -2541.727732617163
235717.28631747168 186408.9113780229 -2559.301426296275
233695.9300347573 190369.4472228403 -1660.554909725549
218755.4392875609 178594.5381427845 -1314.3710150154432
226878.14223275252 182313.13524667808 -1480.12294940704
219905.0523088204 177380.9357164741 0.0
220390.6967179283 180335.29480689383 0.0
222658.3477271946 178563.0210615613 0.0
218386.9339804092 182099.1363212408 0.0
223326.6470561922 181448.935361119 0.0
221215.50549967118 183239.6501882929 0.0
225462.1733856262 179619.0052714904 0.0
228317.4311507546 180528.0637118974 0.0
226065.8478721406 182352.5753051806 0.0
223991.6636691597 184253.70293774072 0.0
228633.5306646076 183236.7008985074 0.0
219946.83453805168 187998.9018742956 0.0
219186.4709628043 185166.5087219108 0.0
222010.620611534 186134.32298085248 0.0
217877.03333149612 189861.5598768174 0.0
218799.9041997896 191771.2890454631 0.0
222642.3767595058 188845.9259221845 0.0
220583.56604560983 190734.589481608 0.0
224687.7123061264 186951.6414316194 0.0
226712.6150570092 185067.1983360259 0.0
227386.1189270292 187831.00846951318 0.0
225336.4571073811 189688.23966357228 0.0
223258.5787859324 191608.50801462668 0.0
228302.1425595928 190852.5550106013 0.0
234818.3400132161 177844.6655496649 -1354.978836219833
235411.1011086795 172277.3360895844 -1457.305598462642
235319.95954006232 180247.4278172222 -1232.974044711774
231283.9248644505 176412.3284275526 0.0
231704.50242311388 173447.3902615139 0.0
233499.5689363179 177906.94882666948 0.0
230660.5701508419 179343.0079899058 0.0
230063.19594684252 181687.59709773722 0.0
232083.8450799119 181743.0707009655 0.0
234138.5041674026 174843.0668942515 0.0
234184.7865534934 171795.7903522947 0.0
236987.327418956 173201.6022850055 0.0
234290.0827907439 180459.9973253508 0.0
236955.3849388663 179144.2930539558 0.0
237046.14586760532 176173.06686049968 0.0
234127.3803691619 187124.6492011376 -1408.004490965286
234953.6493974082 183264.8528463093 -1424.005044529403
229266.23642242153 185893.9679734373 0.0
231360.0962596604 184007.6991081832 0.0
231504.8338739986 186705.5269897246 0.0
230011.5501096444 188532.44840182317 0.0
231000.87108684907 190735.75304987072 0.0
233085.62069632608 189065.40262976798 0.0
233148.7336655373 192133.57082315968 0.0
234130.0845601363 183265.2809883262 0.0
236505.9110308185 185071.65623047278 0.0
236762.1671877006 182110.3645586884 0.0
233800.6658819409 186028.1168354116 0.0
235859.23126272042 190981.3671145331 0.0
236201.0802140052 188028.4937850145 0.0
205829.79723220022 193888.35328650672 -13946.29852268805
207884.2182038606 195967.29081618882 -13859.34586100439
205413.31040448818 192449.9123333903 -11472.23445724959
207503.70722180032 194281.1003376413 -11493.57521989222
209345.3969648108 196560.2629181734 -11387.294171819221
202372.9727720136 218353.3909566401 -14144.79161935013
199514.5860609377 218924.31638298088 -14214.92064501393
208708.53633217522 214166.3116658386 -14920.837374691191
205141.77586655872 217337.4215962565 -13836.51464531175
207667.4397119774 215893.5071363773 -13385.76446037961
200930.9481217482 219243.4898127924 -11656.412407118189
198007.33500915 219550.0813533657 -11767.792675004599
208864.0029243833 215755.17141669412 -10807.99894373081
203776.6546301258 218526.2042973761 -11456.99204652951
206475.19867505532 217396.8403467953 -11158.130479946401
211235.2940373892 193464.85019262412 -13319.38877878458
209551.9395633153 198352.5210960297 -13420.65806085246
210630.6651759802 201090.7112789324 -13327.90427990532
215101.4033911768 195862.6506695184 -15185.2212887589
213277.8021057031 199056.4013961425 -13227.69966552571
213221.5637563578 202131.9617960517 -15153.25374282315
214554.9933375792 204863.1729695508 -14307.22909522564
210726.97076727438 199134.89887295922 -11097.598739568592
212113.8256057903 195707.65950926242 -10993.406276792219
211300.86989052442 203589.383104195 -12818.78490384215
213683.69868547 202471.6226865981 -12389.90835694505
214264.1648133922 205758.01803110618 -11350.68128154282
210825.60651259273 205795.623904266 -14986.33373928912
210000.9434590833 211813.04336705751 -14725.642360768341
210887.6498390141 208876.9042993141 -14252.69309696843
213114.7308507445 211509.2424554618 -15056.42326890879
214182.0477875638 219514.6347392774 -14739.557749545851
211640.0179602826 206260.69688329202 -12331.58257305009
211903.8457680189 208731.83839655248 -10985.713666235471
209758.9742745245 213741.5490926651 -12653.748469510489
211757.848833092 216546.85523008023 -12850.255508210641
211013.54534684969 211356.8320981324 -12033.01312211983
214605.4908743663 209240.3279643644 -11675.018296469689
213210.0644139214 213639.3923768791 -12814.8617641054
207134.92143333 192735.5544286978 -9077.807301303128
209065.67593753472 194791.7785039599 -9063.517422789311
210593.1101198447 192483.35880128999 -9855.50217532014
210693.10883929112 197226.7615482147 -8866.16753190237
208727.5241636485 193208.1799456352 -6833.339804193393
210501.03810784072 195426.8725945693 -6638.533987912492
205133.4397654387 218634.4335761778 -8952.751649078615
202335.0514277238 219497.82818330333 -9084.340163584513
210718.4454422521 213574.1560345153 -10045.15661970286
209985.46960624462 217863.38771734812 -10604.681616192041
207779.3257512571 217399.5306280141 -8573.609623082368
206535.9121814417 218623.5568890925 -6495.110082923612
203778.7494106101 219590.9259609598 -6799.109346932201
210047.4616254266 215594.7531336935 -8018.228431006987
210104.2436591654 219434.7765545528 -6214.714701032989
211686.25230071688 201877.449971646 -10658.740591312111
211875.8279584411 199890.7617126526 -8501.998860093645
212178.08574503328 204448.38306932722 -10330.28827539198
214372.765454843 197355.1519467132 -9548.28082831212
214727.4373410953 200315.03704758838 -9771.72745158788
211831.5705325127 197929.455222768 -6520.9284207051605
212672.38004035281 202676.5214917941 -8007.6293611770325
212771.1553841115 200600.64395695948 -6266.008039380817
213674.4039277282 195032.0533467995 -7281.264059132474
214958.5588881424 198156.8159767444 -6258.102275289141
212336.4710595969 206607.987728957 -10060.95320430858
211960.9724227621 211056.84133477352 -9269.552780665541
212797.0477733562 208415.4436000026 -8202.85927953936
213422.6323606674 215209.0506534896 -9186.702446218325
212715.3258213085 218988.2437816853 -8794.331026244341
213091.9159024876 205612.716418455 -7533.565442664518
211713.7539998751 213277.1124573828 -7386.7192958039695
212866.3956766824 210717.3538796372 -6531.387732400507
214952.6986505133 212726.4960962119 -6771.706694412448
197943.69227626608 221948.1501638958 -13767.10420556004
200205.27964798192 225255.4559732603 -13611.31786102371
198023.3715711644 229910.5252484283 -14797.414528801539
205651.81344525228 223640.397324286 -14562.35370594998
201975.1226777965 222055.1539587499 -14194.67276819014
201613.4892009451 228499.3849967118 -14762.38591111285
204566.863599092 226836.8935397988 -13816.91745767361
203337.69136863152 224829.1586881842 -10760.09092473167
203044.29737499042 228651.73506098258 -10878.52944718866
204098.4360727786 221081.9800191661 -12058.56941994286
197293.09677026232 234873.6469897374 -14141.97993725388
200706.705634098 231980.76447136508 -12994.818463477859
198195.8673129005 238270.403249364 -13813.42690670142
200892.7683957239 238030.7389216768 -13072.33652914452
203554.5096822663 231061.5388580265 -13995.80819683099
202942.4082921333 237090.9466890461 -14863.07667454941
202685.1754476566 234902.4141605231 -13428.439858181351
199529.6989669503 235700.1567165887 -12116.15955118358
197175.8755491552 233313.1485940444 -11074.783786382319
198947.1111252775 238825.235476727 -11221.820095360688
205054.6636641476 233540.3489969612 -11271.06829801865
203663.7827655242 237623.72265447042 -12133.07864392184
209020.636383034 223617.7042328481 -14478.74774864036
210778.7316101898 220916.3023525287 -12644.06178334149
208339.4297205028 227646.942112252 -13493.96597469752
211331.5492105988 226773.0094279543 -15107.334142779051
215212.73956996732 227535.9714124634 -15150.24229292782
207346.9479918591 219929.2780899332 -12089.16639902041
207368.26513789291 223874.0381047854 -11226.17691174946
206824.1638908722 227722.5447944282 -10477.67327691578
213072.64219372228 224843.5865974511 -12408.595570055899
213881.1607609512 221447.482786628 -11394.47116178627
215126.0490269206 228018.2431783475 -11775.69315278638
211388.9704276594 229059.3875012841 -10667.17748799746
205936.03899809442 233156.6492758723 -14731.84496680135
205881.91240334048 236505.6638068804 -13778.846062770739
214820.2514249105 231736.2738078579 -14464.891341210548
212158.48559379 230290.6517839446 -14126.310529086391
210485.61659733762 234395.4469553783 -14278.127167062508
206041.4928447486 230148.3203829116 -12951.057115491309
208966.68651186881 231919.8315641855 -12473.13455476191
208473.67938741622 235812.39009228512 -12690.05003587615
206351.6762199709 237111.8716697336 -10978.53265963308
212985.0814871564 233425.7218730999 -12966.93611948571
211015.0734295815 235007.039951192 -11423.40847847441
197651.3095895054 223144.6143507866 -9988.495250960214
197200.17385645703 229891.7689869314 -9889.390967646197
200915.3316869274 222397.6891596612 -10238.71830131769
199450.8036819272 219935.27178719192 -9376.631363028433
199481.0985814414 227136.81068904212 -10451.91366474342
197991.6239725963 220460.4709932789 -7047.011339337545
199176.1211205739 222992.179549347 -6998.901133353568
197558.07663513118 226524.9584963736 -7125.0419383771905
200850.1793669698 220262.7361157097 -6777.86097829071
202295.0461167505 222667.7230497109 -6399.228405450379
200904.8575756382 229348.5309081794 -6869.733131768168
204502.5808988827 226107.6875814993 -6750.326812060002
200990.8779272321 225879.0810524107 -6555.232602404211
198786.0141454829 236157.4514741309 -8859.396967088445
197130.0877862114 239494.6406168925 -9455.393001478677
199406.1797958158 239414.127128449 -8637.157661613279
202539.1180919431 235324.27674228238 -10115.67975871786
200804.0296222404 231968.09659196358 -9650.664784342249
201491.8885954591 238619.8844373392 -10384.809466596269
204187.2601440138 238235.3204725511 -9303.109620534397
199126.643763634 233005.6049911843 -6565.867078175986
197617.22184541132 237376.20683160942 -5999.8512799026
202666.1665135594 236107.7734932513 -7343.643694405737
203341.16759449712 232646.72362297922 -6182.3343331839105
201977.3996858383 239225.3839035104 -7601.286290135269
204543.45689469427 238736.01005309168 -6682.039192070979
209203.5749137174 221105.65906598212 -9052.615283410052
205176.7081747231 222669.8937502481 -8861.729638337292
210313.77536016668 224880.4562235465 -10381.36294345561
214048.57478780512 223831.7074238878 -8736.4122467449
212274.500499802 226645.85450300568 -8186.800714633737
208439.9791016913 223879.99087706298 -6172.345024792058
206232.757894941 221474.3793509756 -6096.359910308447
208231.92537930462 227217.1816714007 -7349.6724089313975
211974.1534051152 222439.30442787003 -6109.721324133214
211223.7126079468 229575.44452058492 -5946.363240988482
208807.6841815407 232306.7037229912 -9032.372513597664
205451.0036620198 230704.0335978983 -8673.96563139011
209017.3774451209 236391.72605089852 -9915.985831435806
212610.30991549298 232027.1582075564 -8607.95931381537
213505.2706240286 234016.7675499762 -10103.727534735819
211561.5517780355 235579.72546408352 -8612.488412052715
206050.3553037922 235384.628949077 -7899.944900519827
206849.2146547696 237685.4231706665 -8217.753810451275
213989.86226166532 234544.1958657318 -7222.094576533371
209863.28329354522 234051.6342470076 -6795.375293477829
209370.83357123172 236935.590501814 -7201.410448981069
216742.563595023 198322.3325565254 -12526.11881207036
219917.42724345098 199330.17082441068 -14492.45864126196
224889.03684356879 192544.2241814436 -13760.043572065211
223497.3487697013 196065.73212634661 -13478.703765520511
215307.0068159572 194459.1209860467 -11739.66040632152
218367.5095507114 195551.29862046 -12124.91634702722
220862.3221780007 193191.6503701201 -11124.31176157933
222869.22046407821 200066.53855907358 -11967.15457657028
220897.7933984271 197314.7759216664 -10570.55474363467
217004.74700736522 203297.009544035 -14873.317993126459
217664.3402825446 207511.03773294328 -14400.5841129173
219708.6462747832 203605.7600839379 -13079.34416875707
222413.8515614271 205917.58705285718 -14703.291469529431
216363.83664120192 200978.00781883192 -12890.54091351242
220091.60643169342 208995.9850100361 -12039.3588849193
