801
168.969 122.501 -30.1568
169.552 122.629 -30.5587
169.738 122.327 -29.3109
168.386 122.163 -29.0634
169.118 122.921 -30.5298
170 123.25 -31.99
168.525 123.114 -29.2091
170 123.25 -29.865
170.89 123.757 -30.6183
171.432 123.688 -29.3562
170.488 124.141 -30.574
171.091 124.295 -30.2815
170.323 124.738 -29.2127
167.875 121.125 -27.74
165.75 121.125 -27.74
167.017 121.99 -28.5137
167.05 122.77 -28.5466
170 121.125 -27.74
170.736 122.749 -29.0664
170.871 122.428 -28.3834
165.75 123.25 -27.74
167.982 123.232 -28.0933
168.881 124.43 -28.777
167.875 125.375 -27.74
171.747 124.832 -29.3101
171.739 123.55 -28.2925
173.13 124.063 -28.6019
174.25 123.25 -27.74
173.526 125.236 -28.4907
170 125.375 -27.74
170.812 126.119 -28.6039
172.09 125.912 -28.6421
170 127.5 -27.74
173.592 126.007 -28.2434
167.82 120.535 -26.6577
166.562 120.632 -26.5786
166.134 120.542 -25.2569
165.75 121.125 -25.615
167.687 120.862 -25.9757
164.845 121.426 -25.1083
165.181 121.646 -26.4981
165.17 122.407 -26.5002
165.348 122.445 -25.5489
169.938 123.313 -27.9686
169.034 120.547 -26.674
169.275 120.555 -25.8643
164.794 122.291 -25.1204
169.115 120.244 -25.6054
172.023 125.165 -27.9484
174.25 125.375 -27.74
169.377 125.999 -27.4216
168.731 125.933 -27.4039
168.941 126.434 -27.5586
169.007 126.368 -27.3434
172.028 126.3 -27.9788
169.443 126.644 -27.4044
173.882 126.379 -27.3962
174.504 125.663 -27.9977
175.104 125.473 -27.1814
174.51 126.116 -27.9253
174.983 124.464 -27.1683
175.443 124.745 -26.5434
174.886 124.521 -26.888
174.939 125.676 -26.4504
174.25 127.5 -25.615
175.05 126.419 -27.1078
176.375 127.5 -25.615
176.375 125.375 -25.615
167.719 120.268 -25.5525
165.732 120.583 -23.917
164.254 120.646 -23.1436
164.996 120.745 -24.5516
167.612 120.308 -24.7519
169.068 120.178 -24.9815
165.86 121.37 -24.053
167.643 120.681 -24.8662
165.186 123.066 -23.6714
169.109 120.379 -25.0551
169.811 120.153 -25.1837
169.796 120.127 -24.9303
169.852 120.288 -25.2513
169.814 120.238 -24.962
163.955 121.524 -23.4765
164.132 122.845 -23.1208
176.804 126.149 -24.4428
176.967 126.27 -23.2062
176.649 126.205 -23.5065
176.781 126.857 -24.4401
176.375 127.5 -23.49
174.53 127.84 -23.7394
173.193 128.257 -23.4154
173.571 128.062 -24.3944
173.585 128.35 -24.0794
174.365 128.228 -24.4117
175.449 128.148 -24.4379
176.883 126.941 -23.1919
175.627 128.522 -23.1792
163.824 120.399 -21.3834
162.645 120.284 -20.9693
163.19 120.673 -22.1957
163.035 121.437 -22.2668
164.812 120.751 -22.5442
164.87 121.678 -22.455
163.159 122.389 -22.1684
164.872 123.322 -22.1899
162.649 122.902 -20.9073
163.625 123.25 -21.365
164.475 124.54 -22.6769
165.75 125.375 -23.49
163.625 125.375 -21.365
165.75 125.375 -21.365
177.053 125.929 -21.7086
176.687 125.795 -21.7689
176.375 127.5 -21.365
176.977 127.158 -21.6345
174.558 128.126 -22.5334
176.375 129.625 -21.365
173.163 128.54 -23.2985
174.35 128.601 -23.3459
173.133 128.367 -22.7822
172.388 128.463 -22.7463
172.411 128.433 -22.987
172.403 128.559 -22.9582
172.385 128.579 -22.7328
173.12 128.612 -22.7464
174.521 128.783 -22.4562
162.369 121.399 -20.897
163.761 119.316 -18.9889
161.5 119 -19.24
161.5 121.125 -19.24
163.838 121.586 -21.2396
163.017 121.282 -19.8361
161.5 123.25 -19.24
162.964 123.23 -19.8933
162.934 124.194 -20.6774
162.681 124.225 -19.6977
163.688 125.127 -19.1516
175.007 121.972 -21.7181
175.323 122.312 -21.8027
175.319 122.414 -21.5571
174.461 121.419 -21.2231
175.285 122.35 -21.8027
175.599 122.747 -21.7952
175.281 122.452 -21.557
176.133 123.751 -21.4932
173.825 120.686 -20.8127
173.6 120.488 -20.6822
173.787 120.724 -20.8128
173.825 120.724 -20.7745
173.639 120.488 -20.6442
173.601 120.526 -20.6442
176.855 124.807 -21.3047
177.044 125.056 -20.9788
176.78 124.786 -21.0501
176.943 125.863 -21.0578
166.165 125.751 -22.7345
166.164 125.751 -22.1196
166.126 125.79 -22.7345
166.309 125.934 -22.5841
166.126 125.789 -22.1196
166.309 125.934 -22.2696
176.871 127.198 -20.9695
177.159 125.918 -21.0283
177.126 127.078 -20.9942
176.892 128.292 -21.2357
176.818 128.306 -20.9772
177.047 127.958 -20.9336
162.349 119.227 -17.8171
161.381 120.049 -18.2157
161.205 120.026 -18.6891
161.094 121.048 -18.7338
161.438 120.83 -18.4457
165.723 118.473 -17.8673
165.924 118.086 -17.6366
164.63 118.432 -17.9817
164.361 118.201 -17.1842
164.039 118.658 -17.499
165.827 118.407 -17.0774
161.087 122.039 -18.7873
161.226 121.969 -18.6623
173.508 120.391 -20.5752
160.992 121.703 -18.5272
164.263 125.835 -18.157
164.491 126.121 -17.4767
164.3 125.956 -17.7042
164.208 125.89 -18.1572
164.41 126.086 -17.8869
164.425 126.188 -17.4773
137.601 196.622 -19.119
138.118 196.565 -19.2218
138.101 196.208 -18.3596
137.32 196.456 -18.2548
137.591 196.978 -19.1211
138.121 197.016 -19.2683
137.282 197.285 -18.2197
138.631 196.63 -19.1033
138.878 196.481 -18.2142
138.646 196.982 -19.1087
138.116 197.511 -18.5765
138.933 197.292 -18.1919
138.052 195.634 -16.9233
136.626 195.871 -16.5192
136.401 197.204 -16.508
139.445 195.977 -16.3846
137.43 198.004 -17.6657
138.107 198.148 -17.7737
137.107 198.155 -16.5215
138.776 198.004 -17.6483
139.732 197.23 -16.4127
139.031 198.152 -16.4836
152.476 200.393 -19.1074
153.001 200.358 -19.2628
153 199.86 -18.5654
152.183 200.078 -18.1843
152.49 200.744 -19.0983
153.001 200.806 -19.2104
152.235 200.891 -18.2034
153.525 200.392 -19.1056
153.818 200.078 -18.1836
153.511 200.744 -19.0964
153.001 201.152 -18.3337
153.766 200.89 -18.2022
153 199.218 -17.7523
152.335 199.361 -17.631
152.059 199.191 -16.4329
151.365 200.123 -16.3875
151.64 201.394 -16.3611
153.665 199.361 -17.6306
153 201.698 -16.8713
154.361 201.393 -16.3607
154.636 200.122 -16.3871
153.941 199.191 -16.4324
165.966 117.884 -16.9319
167.403 117.917 -17.3252
167.658 117.772 -16.5547
167.355 118.18 -17.378
167.614 118.243 -16.6015
164.427 118.095 -16.596
163.468 118.28 -16.736
163.244 118.473 -17.1377
166.056 117.924 -16.2519
168.047 117.829 -15.4528
163.225 118.559 -16.9328
164.313 118.338 -16.7037
166.008 118.194 -16.3004
168.033 118.115 -15.4673
168.403 117.894 -17.0487
169.024 117.827 -16.1624
168.39 118.065 -17.0616
169.014 118.09 -16.1711
169.412 117.77 -14.8566
169.407 118.126 -14.8612
169.919 117.868 -15.5166
170.193 117.848 -14.4897
169.916 118.021 -15.518
170.191 118.034 -14.4904
161.072 120.933 -18.3926
164.55 126.264 -17.3753
164.588 126.259 -17.0196
164.497 126.212 -17.083
164.534 126.313 -17.0204
164.611 126.342 -16.9826
168.894 128.532 -16.8872
168.959 128.532 -16.8869
168.954 128.52 -16.135
168.861 128.52 -16.1322
168.894 128.596 -16.886
168.959 128.596 -16.8856
168.861 128.608 -16.1317
168.954 128.608 -16.1337
168.902 128.512 -14.6306
168.778 128.511 -14.6171
168.778 128.617 -14.6168
168.902 128.615 -14.6298
137.96 194.862 -15.8211
136.932 194.945 -15.7075
136.345 194.45 -14.3926
135.946 195.239 -15.225
135.189 195.591 -14.4219
135.665 196.056 -15.6659
135.638 196.734 -15.6965
138.916 195.067 -15.6927
135.324 196.813 -14.6021
135.949 197.642 -15.0022
136.807 198.333 -14.9757
139.936 195.518 -14.6262
139.044 194.75 -14.504
140.365 196.314 -15.6039
140.615 196.206 -14.4423
140.45 196.845 -15.6138
140.052 197.597 -14.7439
140.657 196.921 -14.4672
139.147 198.309 -14.9012
138.073 198.446 -16.5356
137.995 198.585 -14.9625
153 198.897 -16.4675
153 198.678 -14.7503
151.886 198.955 -14.7298
150.992 199.677 -14.658
154.114 198.955 -14.7296
150.409 200.412 -14.4295
150.647 200.516 -15.5969
150.73 201.064 -15.5877
155.008 199.676 -14.6577
155.354 200.516 -15.5969
155.591 200.412 -14.4289
155.271 201.064 -15.5875
150.45 201.19 -14.4116
151.095 201.9 -14.574
152.117 202.276 -15.6588
153.001 202.425 -15.7894
151.934 202.583 -14.4299
153.884 202.275 -15.6582
154.906 201.9 -14.574
155.551 201.19 -14.4112
154.067 202.583 -14.4297
169.963 117.844 -13.168
169.01 117.867 -14.2305
169.007 118.03 -14.2338
169.962 118.039 -13.1692
170.513 117.866 -12.826
170.513 118.013 -12.8263
179.532 126.407 -14.7653
179.595 126.407 -14.7643
179.606 126.396 -14.0173
179.52 126.396 -14.0172
179.532 126.471 -14.7641
179.595 126.47 -14.763
179.52 126.482 -14.0167
179.606 126.482 -14.016
179.611 126.39 -12.5329
179.514 126.39 -12.5328
179.514 126.488 -12.5326
179.612 126.487 -12.5322
168.768 128.502 -12.7032
168.573 128.498 -12.6421
168.574 128.63 -12.6419
168.768 128.625 -12.7027
173.888 130.618 -14.8665
174.251 130.591 -14.9369
174.25 130.472 -14.0861
173.826 130.575 -14.0698
173.889 130.759 -14.8654
174.251 130.786 -14.9356
173.827 130.803 -14.0692
174.613 130.618 -14.8647
174.675 130.574 -14.0689
174.612 130.759 -14.8635
174.251 130.905 -14.0848
174.674 130.802 -14.068
174.25 130.411 -12.5567
173.796 130.548 -12.5529
173.797 130.829 -12.5527
174.704 130.548 -12.5526
174.251 130.965 -12.556
174.704 130.829 -12.5521
137.819 194.357 -14.4399
136.023 193.657 -12.3156
134.68 194.029 -12.0133
135.286 194.611 -13.7213
137.794 193.897 -12.6565
139.083 194.566 -12.9199
140.027 195.463 -12.8426
140.706 196.191 -12.7438
134.48 195.322 -12.4042
135.142 197.028 -13.0602
135.728 197.779 -13.7797
136.436 198.254 -13.3519
140.064 197.544 -12.9715
140.72 196.896 -12.7725
139.115 198.233 -13.2937
137.874 198.468 -13.3745
153 198.566 -12.7926
151.812 198.828 -12.7834
150.851 199.51 -12.751
154.188 198.828 -12.7833
150.279 200.357 -12.6864
155.149 199.51 -12.7509
155.721 200.357 -12.6861
150.295 201.259 -12.676
150.888 202.096 -12.7077
151.834 202.761 -12.6776
155.114 202.097 -12.7078
155.706 201.259 -12.6757
154.167 202.761 -12.6776
153 202.817 -14.4268
153 203.01 -12.6711
170.839 117.879 -10.7806
170.612 117.874 -10.8593
170.613 118.004 -10.8596
170.839 117.999 -10.7809
158.763 122.181 -13.4461
159.003 122.26 -13.7757
159.051 121.452 -12.8014
158.738 121.624 -12.6793
158.894 122.783 -13.7563
159.375 123.25 -14.99
158.843 122.958 -12.7502
159.375 123.25 -12.865
159.963 124.02 -13.847
160.087 124.204 -13.0205
159.687 124.419 -13.7748
160.203 124.605 -13.3486
159.375 125.375 -12.865
159.375 119 -12.865
158.913 120.236 -12.3971
158.916 120.202 -11.6843
158.747 121.479 -12.0093
158.816 122.937 -12.0516
159.02 121.254 -11.8216
159.375 119 -10.74
159.153 123.138 -11.8925
158.982 124.176 -12.445
159.034 124.102 -11.7904
160.678 125.333 -12.187
159.623 125.048 -11.0357
161.522 125.895 -11.4244
161.567 126.076 -10.6723
160.825 125.778 -10.7365
161.31 125.95 -11.3383
161.707 126.12 -11.189
161.055 126.124 -10.4105
179.613 126.388 -10.6654
179.511 126.388 -10.6654
179.512 126.49 -10.6653
179.614 126.49 -10.6652
168.546 128.483 -10.5942
168.142 128.459 -10.3332
168.142 128.668 -10.333
168.546 128.644 -10.5939
174.25 130.389 -10.6708
173.786 130.538 -10.6702
173.786 130.84 -10.6701
174.715 130.537 -10.6701
174.251 130.987 -10.6706
174.715 130.839 -10.6699
135.458 193.024 -11.3704
134.784 193.136 -11.2631
134.434 192.788 -10.0707
134.467 193.783 -10.4853
133.408 193.754 -10.0742
133.754 194.121 -11.2771
133.713 194.701 -11.4126
136 193.375 -10.74
135.64 192.719 -10.2461
138.125 193.375 -10.74
133.473 194.629 -10.2828
134.47 195.173 -10.7991
135.312 196.827 -11.8078
139.083 194.542 -11.5429
139.836 195.833 -10.9832
140.728 196.292 -10.8108
135.619 197.844 -12.7821
135.692 197.711 -12.1522
139.833 197.035 -11.1203
140.73 196.763 -10.8396
139.017 197.918 -12.1011
136.546 197.9 -12.1704
137.888 197.993 -12.1414
153 198.529 -10.7387
151.789 198.785 -10.7356
150.81 199.459 -10.7251
154.211 198.785 -10.7356
150.233 200.339 -10.7087
155.191 199.459 -10.725
155.767 200.339 -10.7086
150.238 201.284 -10.7046
150.821 202.16 -10.7097
151.797 202.828 -10.7034
155.18 202.161 -10.7097
155.762 201.284 -10.7046
154.204 202.829 -10.7034
153 203.08 -10.701
159.751 118.586 -12.1095
159.935 118.441 -11.9591
159.934 118.441 -11.6445
159.751 118.587 -11.4946
159.789 118.625 -12.1094
159.789 118.625 -11.4946
171.013 117.885 -8.723380000000001
170.879 117.884 -8.740410000000001
170.88 117.994 -8.74057
171.013 117.992 -8.723739999999999
160.565 126.061 -9.421469999999999
159.242 125.735 -9.10642
160.127 125.858 -10.0803
159.577 126.075 -8.902760000000001
161.657 126.249 -10.5567
161.408 126.194 -9.932029999999999
161.455 126.317 -9.8842
160.678 126.264 -9.331849999999999
179.613 126.388 -8.687799999999999
179.511 126.388 -8.68788
179.512 126.49 -8.687939999999999
179.614 126.489 -8.68801
167.914 128.348 -8.45274
167.402 128.45 -8.15746
167.607 128.49 -9.35801
167.607 128.638 -9.357710000000001
168.388 128.448 -8.594709999999999
168.387 128.679 -8.59465
167.403 128.677 -8.157019999999999
167.915 128.779 -8.45237
174.25 130.389 -8.68249
173.786 130.538 -8.683199999999999
173.786 130.84 -8.683260000000001
174.715 130.537 -8.683249999999999
174.251 130.987 -8.682700000000001
174.715 130.839 -8.683400000000001
134.144 192.064 -8.448449999999999
132.927 192.368 -8.262119999999999
133.468 192.87 -9.546150000000001
135.43 192.231 -8.86889
136.782 192.77 -9.99944
136.38 192.476 -9.038119999999999
136.208 195.26 -10.9569
134.335 193.8 -8.97289
135.64 193.218 -9.20016
133.566 194.872 -8.86205
138.074 195.39 -10.9623
136.687 192.903 -9.26413
132.657 193.552 -8.40109
132.946 194.726 -8.65691
136.468 196.865 -11.4793
138.076 196.939 -11.3406
141.047 196.433 -8.74949
140.74 196.349 -8.793710000000001
140.74 196.711 -8.818820000000001
141.047 196.664 -8.758649999999999
153 198.543 -8.689120000000001
151.794 198.795 -8.68886
150.818 199.465 -8.68576
154.206 198.796 -8.68886
150.239 200.341 -8.68482
155.182 199.465 -8.685750000000001
155.761 200.341 -8.684839999999999
150.241 201.284 -8.683630000000001
150.822 202.16 -8.68146
151.797 202.827 -8.68055
155.18 202.16 -8.68135
155.759 201.284 -8.68371
154.203 202.827 -8.68051
153 203.078 -8.67952
164.52 115.751 -8.271649999999999
164.856 115.751 -8.2706
165.101 115.689 -7.47663
164.275 115.689 -7.47664
164.52 115.877 -8.2704
164.856 115.877 -8.26924
164.275 115.938 -7.47606
165.101 115.938 -7.47547
164.21 115.527 -6.27758
163.521 115.684 -6.14953
163.626 115.731 -7.00658
163.626 115.897 -7.00602
165.166 115.527 -6.27748
165.751 115.731 -7.00644
165.855 115.684 -6.14913
165.75 115.896 -7.00572
163.522 115.944 -6.14908
164.212 116.1 -6.27731
165.166 116.1 -6.27719
165.854 115.943 -6.14894
171.081 117.889 -6.82902
170.975 117.889 -6.83265
170.976 117.989 -6.83291
171.081 117.988 -6.82978
158.991 125.881 -7.93294
157.25 125.375 -6.49001
157.25 125.375 -8.61501
158.37 125.859 -8.3066
159.989 126.115 -8.466290000000001
160.084 126.256 -8.48333
158.298 125.868 -7.56234
159.278 126.118 -8.09768
179.611 126.39 -6.81983
179.514 126.39 -6.82007
179.514 126.488 -6.8203
179.611 126.487 -6.82053
167.723 128.314 -6.64389
167.119 128.436 -6.49403
167.12 128.691 -6.49392
168.261 128.435 -6.73198
167.724 128.812 -6.64401
168.26 128.691 -6.73224
174.25 130.411 -6.79618
173.796 130.548 -6.80008
173.797 130.829 -6.8003
174.704 130.548 -6.80029
174.251 130.965 -6.79691
174.704 130.829 -6.80081
133.875 191.25 -6.49001
131.75 191.25 -6.49001
131.75 193.375 -6.49001
135.276 192.102 -7.86281
132.634 194.657 -7.65559
133.716 193.21 -7.53134
135.301 192.788 -8.13602
133.218 194.661 -7.89791
136.102 192.347 -8.31592
136.179 192.651 -8.430859999999999
132.89 195.365 -8.176780000000001
133.122 195.405 -8.2362
132.802 195.339 -7.82098
133.024 195.351 -7.8886
141.243 196.492 -6.83997
141.096 196.477 -6.85034
141.096 196.635 -6.85498
141.243 196.626 -6.84279
153 198.625 -6.76
151.832 198.871 -6.76328
150.888 199.531 -6.75925
154.168 198.871 -6.76328
150.305 200.365 -6.77218
155.112 199.531 -6.75928
155.695 200.365 -6.77232
150.306 201.261 -6.77196
150.889 202.095 -6.75845
151.834 202.754 -6.76185
155.112 202.096 -6.75817
155.694 201.261 -6.77227
154.167 202.754 -6.76173
153 202.998 -6.75877
164.198 115.527 -5.05781
163.51 115.684 -5.04856
163.511 115.943 -5.04869
165.179 115.527 -5.05827
164.199 116.1 -5.05857
165.179 116.1 -5.05883
165.866 115.684 -5.04897
165.865 115.943 -5.04949
171.097 117.896 -5.33768
171.01 117.896 -5.33877
171.01 117.982 -5.33922
171.098 117.982 -5.33906
156.188 122.867 -6.62883
156.482 122.938 -6.70464
156.619 122.46 -5.85541
155.94 122.399 -5.8135
156.284 123.599 -6.91356
156.697 123.831 -7.20738
155.974 123.449 -6.02635
156.834 123.702 -6.19204
156.518 124.528 -7.27922
156.174 124.671 -6.0871
157.25 121.125 -4.36501
155.125 121.125 -4.36501
155.727 123.31 -4.95766
156.763 123.358 -4.98615
155.125 125.375 -4.36501
157.25 125.375 -4.36501
179.605 126.396 -5.3356
179.519 126.396 -5.33606
179.52 126.482 -5.3365
179.606 126.482 -5.33696
167.498 128.352 -5.08481
166.613 128.454 -4.79055
166.614 128.673 -4.79075
168.12 128.452 -5.20936
167.499 128.774 -5.08559
168.119 128.675 -5.21009
174.25 130.472 -5.26691
173.826 130.575 -5.28368
173.827 130.803 -5.28409
174.674 130.575 -5.28411
174.251 130.905 -5.2683
174.674 130.802 -5.28512
133.177 190.783 -5.42053
132.366 190.837 -5.42315
132.178 190.773 -4.36754
131.75 191.25 -4.36501
133.236 190.821 -4.55698
131.273 191.679 -4.36803
131.337 191.866 -5.42359
131.283 192.677 -5.42073
131.321 192.736 -4.55701
133.196 190.542 -4.36192
131.042 192.696 -4.36229
141.319 196.515 -5.34115
141.221 196.513 -5.34374
141.222 196.612 -5.34492
141.319 196.61 -5.34294
153 198.847 -5.14883
151.931 199.063 -5.16868
151.092 199.726 -5.14265
154.069 199.063 -5.16868
150.475 200.431 -5.20018
154.908 199.726 -5.1427
155.525 200.431 -5.20046
137.033 200.784 -6.41513
137.094 200.784 -6.4143
137.102 200.774 -5.86162
137.023 200.774 -5.86178
137.033 200.844 -6.41425
137.094 200.844 -6.41337
137.024 200.854 -5.8615
137.103 200.853 -5.86111
137.102 200.774 -4.98913
137.023 200.775 -4.98943
137.023 200.854 -4.9896
137.102 200.853 -4.98974
150.476 201.196 -5.20028
151.093 201.901 -5.14299
151.932 202.563 -5.1693
154.908 201.901 -5.14251
155.525 201.196 -5.20093
154.068 202.563 -5.1691
153 202.777 -5.15037
164.214 115.684 -4.29003
163.591 115.731 -4.37037
163.592 115.897 -4.37075
165.163 115.684 -4.2909
164.215 115.943 -4.29144
165.163 115.942 -4.29202
165.785 115.73 -4.37132
165.784 115.896 -4.37231
171.091 117.907 -4.59047
171.028 117.908 -4.59123
171.028 117.971 -4.59183
171.091 117.97 -4.59232
156.495 120.711 -3.98861
155.88 120.711 -3.98854
156.03 120.566 -3.80518
155.88 120.75 -3.95072
156.495 120.749 -3.95091
156.345 120.566 -3.80589
156.495 125.751 -3.95057
155.88 125.751 -3.95077
155.88 125.79 -3.9887
156.495 125.789 -3.98894
156.03 125.934 -3.80576
156.345 125.934 -3.80608
179.594 126.407 -4.58986
179.531 126.408 -4.59049
179.531 126.471 -4.59109
179.594 126.47 -4.59171
166.484 128.491 -4.04323
165.895 128.518 -3.83283
165.935 128.509 -4.11772
165.936 128.618 -4.11771
167.383 128.465 -4.23632
167.98 128.493 -4.40514
165.897 128.61 -3.8333
166.485 128.636 -4.0443
167.383 128.662 -4.23737
167.979 128.634 -4.40618
174.25 130.591 -4.41752
173.889 130.618 -4.48934
173.89 130.759 -4.48987
174.611 130.618 -4.48995
174.251 130.785 -4.41925
174.611 130.759 -4.4913
132.165 190.806 -3.82208
131.543 191.044 -3.791
131.54 191.041 -4.10286
133.165 190.507 -3.81115
133.772 190.384 -3.93443
133.761 190.371 -3.70286
133.781 190.514 -3.98725
131.894 191.395 -3.81858
133.12 190.751 -3.85207
131.25 192.621 -3.85193
133.753 190.492 -3.72481
131.305 191.666 -3.82324
131.007 192.665 -3.812
130.884 193.273 -3.93468
131.014 193.281 -3.98732
130.87 193.261 -3.70325
130.991 193.253 -3.72487
141.33 196.531 -4.59178
141.264 196.53 -4.59293
141.264 196.597 -4.59368
141.33 196.596 -4.59374
153 199.313 -4.12248
152.106 199.39 -4.23989
151.603 200.205 -4.07648
153.894 199.39 -4.23987
150.768 200.548 -4.31401
154.397 200.205 -4.07645
155.232 200.548 -4.31441
137.093 200.784 -4.43807
137.032 200.784 -4.43856
137.033 200.844 -4.439
137.093 200.844 -4.43944
150.768 201.079 -4.31426
151.604 201.422 -4.07744
152.107 202.236 -4.24127
154.397 201.422 -4.07701
155.232 201.079 -4.31525
153.893 202.237 -4.24104
153 202.312 -4.12498
132.794 198.67 -3.31995
132.832 198.67 -3.31977
132.832 198.67 -3.28158
132.794 198.67 -3.28173
132.794 198.708 -3.31987
132.833 198.708 -3.31973
132.794 198.708 -3.28174
132.832 198.708 -3.28169
153 200.222 -3.759
153 201.404 -3.76033
