863
191877.9018991751 162884.9618993847 -16422.36843265319
192619.2592914863 167640.6618852996 -15992.21189750557
196222.6046901163 157936.38497245748 -16996.988714263338
196988.336133434 161686.81394932262 -16900.73403493547
195349.07452735188 166924.3678291032 -16803.78860562776
195253.95101172218 171341.6107350662 -18977.78735835633
194913.45410216931 177745.4828349299 -19109.23926878305
192115.363106039 179795.6774916139 -18676.14133157007
197013.7075419575 169136.3286732888 -18847.039072789918
197285.24055666052 172454.4320041684 -20212.99266096506
195966.6316012156 174496.7393652677 -18282.81114153103
193156.83614932332 172574.1695575076 -18025.2566988822
191608.906531863 170325.9968016078 -16519.92895621471
192659.42538563043 177122.15899301672 -16249.19698329818
194182.9663780912 169477.3163834834 -17621.59322741842
195741.8472095647 179066.7147914244 -16023.050477163199
183199.4939760169 182702.4640737928 -25319.59630685702
185025.6781612613 184534.39967952992 -23402.41480719158
182434.3183397431 190641.75206131922 -24354.00093485257
185585.9769353745 188152.6773750046 -23816.8398382216
188788.1430877783 183238.86760591718 -24358.23039645804
186657.9848966719 180568.5171143453 -23417.29097565955
188983.6059446444 188873.7542871539 -24897.09192168284
182050.48179416612 182701.7830427342 -21078.21555494813
182248.043764824 187513.7775859129 -22708.01420361974
187765.9332006505 185244.8319764818 -22339.80283357453
187720.83740620618 182541.4081604514 -20986.169952706452
188477.9774568622 188116.491379438 -21715.76662746648
186249.4985891513 190184.1491242922 -21625.1754809551
183629.7541204476 193691.0783445588 -24202.34304047353
183248.8008279551 198424.2099338004 -24947.47260528693
187189.10249479982 191298.7964792634 -24374.87935478704
186805.1869100371 194505.33551640649 -24233.66068307554
188208.37740605508 198782.1440977324 -25358.03932150364
186737.8909826985 200935.0356736506 -24258.25656052886
188800.1593317847 197015.9193911738 -23825.886075710758
184515.92105438642 195899.6198256957 -22352.52882074308
183952.690337615 192177.6680844281 -21615.82771277908
185865.0344553331 200703.1795889867 -21466.3540981525
187286.3433889884 193034.0452862149 -21395.8763382931
187234.96866651872 198552.24628167512 -22884.72718142295
188441.7214772015 196361.5719465804 -21512.13213941082
192385.9032244876 183103.01177246548 -24173.70960217751
190924.7347921951 186331.0982870542 -24394.79284053191
195173.6316956719 182116.81928214678 -23577.427636375058
195665.9619457841 187442.3784764305 -24693.55632945703
196130.15924354907 184899.9648352222 -22915.07295774546
191470.1599496146 181823.3860189277 -21121.44463925475
193297.0616999553 185915.49857392162 -22554.35554493652
190797.4399098761 184994.2962350912 -21108.276475399718
196892.2820605637 180036.6612685598 -22228.82042835609
195079.366112585 188037.0400628735 -21325.4046878092
192177.6580971626 195474.6140699811 -25438.57113919913
193685.7715975235 194302.8777344396 -23855.990793910758
190156.2196577019 196790.33646063518 -25739.16845021716
197250.5189236643 190114.8776312489 -25128.61587601909
196206.9924727054 194409.4264368142 -24517.26280061303
190874.2921943079 190701.7638295765 -23329.46159275177
190794.7523069611 195126.62902936112 -23236.02531172283
192754.5276439255 193601.81364367052 -21215.08851407627
194209.4769481409 190574.2092792415 -23311.88440632915
196997.68363653068 190696.6572105916 -22187.28682354795
195405.58371615922 193325.48725278018 -21849.067064753177
185057.21403897268 187651.5850634361 -20192.56993035548
184910.7863527731 183996.2847889234 -20184.91714097013
183468.6357692591 191356.807313673 -18448.085583972952
186924.3190576727 190865.0617455881 -18738.913416113992
184357.88696433348 181705.4595086769 -17683.38348242256
182112.5411666206 185146.4492689936 -17912.078501885742
183847.7769236193 188553.139242145 -16733.90684344195
186618.2851851804 185273.5624922402 -17713.46647360328
187298.4388904844 181853.2499705946 -17067.872184380238
188506.8335886718 190914.20456528268 -15970.28169605605
184691.32264379662 194526.6507619282 -19169.27308305485
182538.20465514058 200036.6721405721 -20813.885760362202
185210.6823134897 200289.1952606503 -18638.60672779859
187816.6246092453 195956.5935667153 -18682.77739041666
186631.31441821388 198206.55755224833 -20135.31629840854
182006.7141241514 194123.5170245956 -17006.10708266835
184566.13554984488 199854.1276017852 -15815.605942211001
185137.27973979578 192400.2307646813 -15789.21247188177
186008.1384316846 197782.5098527635 -17276.98824121624
187232.2247422258 195540.17146706828 -15843.68194510319
189098.5152280356 179912.9584460092 -19764.407148993152
195852.88805725198 180814.503826747 -18951.706799058058
194227.8942789856 183274.80136595308 -20229.42888244174
196857.4740407213 185100.61344809888 -19770.256215804602
190160.4540003105 180239.595180909 -15693.8074656972
189863.7383488073 183164.5807158377 -17932.27496939986
189721.9010025505 185614.02717694 -16197.46887808559
195445.22148662488 185609.7367067429 -16049.619615077681
192341.2016483071 186159.6954034902 -17565.30230607816
189224.9293466458 190843.76259768332 -20681.28986012676
190028.8213144303 194501.3731885835 -19905.652582877992
191691.39681010402 189369.62389341992 -19781.54493072702
194612.8627867054 192574.8667159255 -19239.53761667487
188925.7399850117 187856.9562900079 -18249.15656847605
191295.96099544782 189352.2289243293 -16503.873890858733
191888.1659871634 193018.4513021317 -18269.93683273389
189397.46573833982 194045.1607292493 -17126.255835902823
194578.7859911054 188780.00765453978 -17954.153003136158
196702.6008148617 191808.68854607918 -17339.87222549444
193901.2973417824 191851.85912454632 -16495.12506474822
174889.6677358704 202279.76865564712 -36454.50084682322
174336.13031670311 204989.08658409 -36073.41607211417
177482.1941959004 201569.60444476063 -37793.250693527814
176620.54016773312 204264.4144262186 -37531.75430357969
172910.77692262782 203111.6323640417 -34559.24971794552
172397.16880411582 205930.30190781128 -34130.114037086816
177191.6802068154 201221.275344616 -34629.723470998186
176885.4725484491 205513.988558968 -34430.9185129486
176269.7708352369 209006.2625495429 -37230.951273170096
175759.8466742993 206489.5645544338 -37124.18493092036
175630.8322564998 211548.3648879686 -36541.587173471446
178085.17508541088 206445.4332604881 -38190.62954812785
177986.8668300069 211389.6954009787 -37738.11641738509
174038.110143551 207615.6857933994 -35672.91702845529
172069.63501037832 208781.00551165972 -33575.35590855855
173806.1294146749 210371.8562842104 -35034.7363154023
176537.916946772 208534.8904044991 -34185.30172437956
179269.3722564488 203724.8590997273 -38737.704134584594
180706.28202363948 206260.4464033078 -39396.58987265238
184384.73507084278 201696.8578182253 -39947.60771337465
182073.75149646 203127.8226004154 -39794.17108668482
183530.50685969667 206307.1551257348 -39900.523894002145
179257.4438689643 203562.663044728 -34627.252213032836
181683.9695834982 204589.1239755216 -36638.150315781306
184315.8980252473 202788.7553301801 -35734.277712058625
182008.40040719148 208984.2972833856 -39757.55850900703
179356.4538973888 208889.0636911879 -38614.44554716411
180650.67505339452 211466.3123878325 -38859.241898986314
184966.1960934796 209026.97392122122 -39955.947951126975
183466.7291324533 211569.4440959351 -39791.976117016995
181907.42562927539 207779.1861482189 -35766.98385906443
180810.8838444312 211210.5801233162 -35229.55411969088
184850.9935669385 207932.2314872162 -36969.08746782751
184524.8686671793 210771.9756185593 -35568.17205857236
169571.6386352756 202018.5643450852 -30855.931119677352
170440.8311508201 206920.2820023059 -32114.101447838337
169140.5693009073 204919.6231280778 -30388.88647901669
170898.22730878272 204016.3307729952 -32611.47239133789
174177.29129052837 205795.00765610707 -31723.05244687977
168094.58253408762 202954.0069067961 -28536.29242370062
167715.6753373483 205815.5890929611 -28008.48437784184
172947.05948845771 202559.63723203668 -30064.55015741165
173787.2671437091 205703.9391218815 -28753.09053008726
170160.4112157581 209830.6736548748 -31517.78351816595
172023.08359095472 211649.5126787138 -33026.41239195168
170231.4167352101 212684.72506689822 -30729.25858194618
175509.73250042778 208448.055455742 -31314.3668767406
175004.2550024465 211831.55652567212 -31957.204887187898
168889.4922178244 207827.92358678902 -29793.55468603912
167456.37606305582 208683.5456467959 -27298.12391222349
168783.799821756 210687.0502534561 -29040.58473948771
172592.22783494348 208410.0081526355 -29987.3363102982
175728.9495360696 208153.9781704275 -28152.18938682619
176202.8448175581 211811.5410822844 -29020.07883059938
172970.11948680968 212910.6462712115 -28673.211655024978
176411.48889445342 203801.54739825678 -31847.805672140643
179047.41373444922 207218.6915921146 -33055.24994577256
179898.1003801513 205585.3563737546 -30479.318037283778
181983.188004964 202076.1683222636 -32128.75248917257
182239.6698542347 205628.5029164179 -32610.530761480633
179299.93383300668 202799.5249243429 -29097.935823981723
176432.66226072982 204187.2114377106 -27762.8613681702
178506.4145730444 206631.3020463236 -27834.30666373295
183468.9112141442 202846.4673812833 -28207.747989783322
183298.8729763027 206979.1147742864 -29452.85587842416
184550.4513866466 205461.19635901018 -27169.39689255624
179078.377125977 209366.4339279568 -30138.86311600815
177993.78513303612 211405.2793091313 -32929.1745205147
179780.4735089219 213083.0785499005 -31041.531916117092
184285.1943866534 208843.07074695642 -31912.589056654648
184974.3901033432 212149.97507355717 -32849.613107622754
182175.4607476271 211301.32673860958 -31853.84765287778
181102.8659506212 208635.6639328987 -27657.381924232548
178382.4915794638 209956.0959040006 -27223.312451587743
180322.83072658858 212126.0098099344 -28150.10868140851
184647.8807569248 209810.4336623789 -27168.201441827558
183176.3510542939 211677.5911953068 -29029.946765540077
176661.30250676261 213864.63951462202 -36790.810150923026
179324.7511432937 213927.8297268204 -37887.31075675747
178033.2931962985 216369.56625373013 -36878.666441004694
174215.4690832051 213448.33939057039 -34660.1723008099
175798.4010974613 216123.4420821822 -35111.822710226596
173823.59575923 216046.6915214498 -33380.643501004764
179674.7025700652 214534.22506144512 -34074.309601870875
177220.3937224428 218481.780373674 -35147.868979084225
178665.4538046642 220653.32497510288 -34927.80582368229
179538.5873253633 218758.7488130096 -36801.40975638984
179823.7441985178 222738.1614642265 -34265.760264454795
174858.8676936198 218306.3856209872 -33285.70561203917
176414.8543725126 220589.15312168738 -33273.751848698186
177908.88041505308 222425.9569879488 -33179.58142822033
178861.4756751785 224428.1573922427 -32379.64283595457
182096.0563330343 214044.5877529368 -38934.55941254332
180801.9746302334 216421.4208304677 -37880.721577869066
182252.2807689733 218880.6424296623 -37649.08469521049
184928.101087213 214153.20810696282 -39777.331169750614
183580.3968059191 216554.2437202965 -38768.065046797885
182870.2492059324 213254.6699623864 -36110.94557014273
180919.5149256251 218183.6469284652 -33478.19147755061
183308.68086227492 215379.5602892543 -33992.276499058105
184807.9810793267 217881.49938301608 -35379.425544570266
181002.92343142602 221013.9355622405 -36304.954086134276
183689.8458869287 221359.2050371987 -37218.52055458006
182405.20639015388 223312.0301836594 -35421.139475711345
181267.5002888405 225069.3909904885 -33355.204858641075
182851.15490524122 227332.1962998964 -32321.938751956855
184363.39319332878 220385.51085379088 -33260.58322080901
183995.778288275 225532.06889796339 -34437.75001709082
171941.583441762 214602.3049344812 -32159.84007314178
170466.1893479927 215483.3784804798 -29794.73827286851
172434.4295836478 217687.54007795558 -31395.27854150905
176657.4082845517 214532.9440970203 -31774.67529949115
176883.213071358 217819.40549187938 -30784.9945157791
168883.8288987348 213536.7546396995 -28228.0136459953
170878.9861325181 218193.8625716485 -28715.214650524
169160.10380136938 216336.2459736326 -27285.783278860952
175193.91116287262 215885.4043517828 -28786.35035196036
174825.62405083122 218854.1594430126 -27973.24286035174
172427.2401964261 219915.0040492908 -29626.31563242466
174114.7385395565 220462.2536025048 -31470.06905600971
176195.626709031 223135.812239654 -31441.12694106633
175730.61157274048 224471.3447765617 -29307.10744847848
171505.11063643298 220828.5155117785 -27525.89202393844
173698.1909676899 222502.1869417607 -28932.034027386853
174521.341512599 224964.3244949501 -27287.474620284018
176988.9891529048 226519.6456080131 -28248.90391531959
179680.0467716783 216157.6701537617 -30714.0243792557
180980.6600837394 220434.3652587907 -30612.53078396551
182999.127192315 214512.8968188098 -30086.83580192151
182706.7347589074 222683.3473441145 -31934.16194034377
178142.19896696322 214555.10792356942 -28316.099466857442
178615.1783065782 222396.7507645886 -28742.51107574469
177923.3293842104 218962.9680994148 -27921.58702471896
181828.1148839741 217475.0941611731 -27405.55783411651
183678.312011322 220245.1082138566 -29030.027023335642
177870.1153798047 225586.8489607426 -30397.99387664971
180196.3383900548 226774.5250520413 -31234.37026585984
184884.0794911863 223053.770727689 -29719.23089139624
184590.4676426885 229511.8513085997 -31019.84778044254
181988.76728845658 228732.6378234363 -30102.08948562754
179492.45915616772 227829.3880050856 -29098.59806722518
181330.2109858619 230183.0472381809 -27418.22828897643
181545.2800589128 224469.1528998736 -28491.338363824412
183549.86251033592 230306.02128060348 -29012.57194836859
187996.20682241282 203917.3236796098 -40234.25507204091
185019.63457562518 203874.7477663785 -40015.61014690796
186620.7458484335 201440.376910377 -40105.79041030234
186473.8652432551 206460.5177133478 -40107.40804661086
190960.6774577659 203871.30628804662 -40451.40701596802
189488.73325477232 201351.2296080565 -40310.90738331727
189434.9995428631 206491.3990583637 -40309.711681535045
187157.89486342872 201660.124306917 -36889.048146861904
187833.9989790438 206328.754848829 -36725.17756289231
189598.1989403943 203364.5960050539 -35538.51454335719
190709.5453483818 205246.40773006002 -37707.72317875229
187917.86213723672 209059.8301904593 -40141.37297858837
186399.2436458705 211639.8199254451 -39959.93118714674
187875.58220381622 214195.8530519661 -39909.84558467133
190789.4709347776 209037.5333701841 -40296.13286185956
189336.87874987148 211661.1805017265 -40102.15864014238
190822.7844412515 214259.5418657686 -39975.142188583755
187495.3096293602 211809.9153480713 -36776.91354844581
185857.8199938394 215021.5594742981 -36451.97615703931
189606.76105558532 209295.5767387061 -35558.09111775888
190817.93477020948 212355.5804056414 -36932.81800503776
192475.1319479511 201379.30221868042 -40519.5081958046
193855.4394874208 203946.3521756492 -40659.33956331508
192204.9164797548 206471.44073143348 -40481.166519934115
195321.4368172286 201519.10163286002 -40672.19942674538
196611.3469054125 204091.7637502512 -40713.994208043485
195084.8545043842 206633.5723611509 -40464.11781945238
192222.80797414522 202579.42722320082 -37426.61196892492
193688.51788018152 205336.2905283437 -36277.101780808865
197213.41886330192 203875.2019868414 -36900.92774397721
196054.5608711406 207468.60693488698 -37354.693042575745
193605.5877672412 209029.6615440736 -40356.53317367102
192243.3254545812 211646.0475366549 -40164.90095329925
193839.8886934089 214222.9207774544 -39651.11863205004
196450.2250007027 209094.9131515786 -40584.06367409825
195078.2187635052 211643.2856886891 -40208.171230013664
196682.6282986244 214222.8505106913 -40557.20236215186
192050.9384747845 208001.12053878748 -37401.1385531397
194127.0569317886 210125.3307979913 -35909.86162168947
195672.1453153728 215068.2915780931 -36576.92987557194
186066.0920192356 202822.7391651671 -32038.38301571703
185343.9872495289 206683.0360899737 -34082.993870235325
188152.4332945905 205192.6534162077 -33094.75268249666
190582.23440652798 206327.1027181005 -31121.34910357792
190939.7651234832 206331.564407392 -34515.63036098558
188051.581876488 203132.81334793838 -28476.69022267534
186039.07997641992 206333.1822399564 -30977.40722237257
187536.52458283928 205113.42525903668 -27386.495722164833
189805.9278071422 203554.1646155887 -30554.26152000081
188841.3255134485 205774.5948891649 -29257.99426201898
189697.9471657808 208511.8684590557 -29332.2053779735
187439.01964295548 209446.7202295346 -32344.37911623268
187617.5306893688 213407.23310794268 -33811.18726847112
185644.93441599462 214980.4300086154 -31834.52199116584
190671.4370125508 211725.1001227354 -33219.24759589146
189009.4742478336 212766.5962396799 -30741.69368958513
186230.9169541705 209017.84494614758 -29612.28881179791
186014.1356527299 212145.67225760332 -29949.539752060988
186980.85053210802 215232.0659656219 -28826.08749368896
190768.1761924829 210521.62859222302 -29380.73980229539
189357.9671743913 210637.5801035981 -27579.05841414764
191221.8296928762 212603.7119152903 -28243.30670927359
192067.4213806961 201905.87384094458 -34241.49080132725
196636.9840038188 201927.2009857853 -34527.35374020922
194674.5370219493 207527.0356072418 -34351.74054498081
193635.631017015 202257.3386872022 -31535.129517694782
191504.0504786048 201398.3639699919 -31186.61807784011
193453.9868631781 206927.8051520772 -31589.5324049948
192390.230373933 204221.72630823991 -31489.84144485818
195296.0782984843 204672.25623496113 -31984.838757795613
195897.1250790293 201466.2131052479 -31527.19748692623
197346.3923172105 205850.96190385308 -31962.26146219708
196240.57900404278 207756.3300176995 -31710.99250309349
194006.76938177532 211844.6107560011 -33430.44946227155
192677.0946526638 214296.1302188463 -34587.987696208336
191899.4243276675 214006.1272707267 -31703.7241636171
197012.6112975419 210855.1740596776 -31726.81259026851
195960.6886363905 214139.69955089063 -33249.77213943055
191611.4432199796 209051.1819994021 -31104.334362122358
192727.342293266 211562.7780179787 -30169.95584960462
193986.9855814187 213532.5373814321 -28281.75854592432
194371.8702217607 209710.3065214351 -31325.85350676664
195506.805633713 212229.41164932871 -30393.14662052189
196741.74815144058 214328.263555941 -28736.42794139357
186418.2469814507 216720.44735221518 -39530.30344192624
187915.9167264248 219211.3434779284 -38967.01213894981
185075.0894395627 219057.77047173708 -38375.56010328787
189357.3431038904 216761.35802229252 -39788.74991795139
190852.6364020737 219296.5505406571 -39379.496329149835
187785.20654033078 218264.2909995061 -34187.20829217666
189531.85929036268 215601.7535982465 -36205.62636110131
190524.4729732261 216938.665367652 -33589.15642179348
190031.5682865699 220687.0975243911 -35020.33673113062
186534.07526159278 221560.17523916368 -37798.93825852709
188039.9014124718 223930.5363793631 -37107.78421690123
185145.3949821246 223801.1898319764 -36496.6373053294
189438.3370161511 221650.3783282554 -38234.43105154032
190958.4352720652 223893.12534168348 -37454.78084111468
189458.8541151892 226030.33673779212 -36362.44301422622
186752.537071931 225798.0655408612 -35461.19717179902
188313.7265284592 227502.8293952806 -34519.65015454404
189763.8418822466 224982.01791095518 -33469.762850603365
190516.4776479701 227891.3777127408 -35065.45647194194
192318.8066955508 216730.75145094818 -39585.06910735969
193811.2568305114 219292.4670566774 -39434.09513300551
192380.4851638828 221670.4787369569 -38594.47151447573
195236.0959097049 216797.4023377379 -40092.39200403924
196771.56011598042 219283.64594510628 -39655.49958618638
195325.4199465588 221666.4073069722 -38720.16589641968
192400.1334775494 218316.9279653524 -35638.74658331008
195159.63004410052 218014.3802344472 -37044.68358271735
196616.43155958358 217653.52004072012 -34138.20686654094
195094.2286896387 220553.9048913788 -35399.25324854799
193853.8901529743 223969.55736737148 -37635.391068887606
192256.1710307963 226127.066282953 -36498.99469930119
196769.7183026602 224024.6438271014 -37740.75508114352
195189.2732766924 226145.9703636824 -36431.46557994242
192149.46272721552 223035.4812756313 -33751.537124029535
193476.34766807558 228078.19579670852 -34925.27461231732
196421.6224461204 227841.74035356322 -34397.89084058761
185023.9956099031 217674.97819373428 -30213.67800062199
188072.4773147807 222486.3917779221 -32783.66917346048
187487.0466993528 220411.76739321218 -29765.23563934099
189707.3807037727 215847.86874481282 -30803.28978882519
190982.0650940431 224922.914248799 -30443.53269402194
189311.0355298616 218399.49556369238 -27239.06003710941
188582.932146552 223356.1846611769 -28880.67440018084
189894.4907022067 215376.62891191492 -27727.61834629226
191400.9684436912 221600.12548120698 -28311.49839155412
186113.0215849301 227989.5021597162 -33221.85499701498
187294.17269661848 230470.9008055167 -31365.12353439527
188890.19822522168 229317.8575589324 -33031.83188836582
190151.86405606952 231324.2283575299 -31407.29351573706
187285.01029017387 226150.69255005472 -29957.303891153308
186091.46487485588 228385.4783326947 -28386.28845969501
185843.4038040257 231252.5510163526 -29164.27790072748
190742.07397422442 228352.7450180774 -29554.08019748651
188533.3399446782 232221.64805496272 -29216.71757714571
191295.12213833068 232776.5942714358 -29159.58934090757
194045.4101104272 216269.76810470832 -31297.84101198931
191772.3286655494 219621.7663637473 -31733.50982713811
194966.377859401 219495.0850534896 -32082.53682023485
195931.0790846342 222516.44725391528 -32612.197323666507
193005.3460803526 218145.6429747493 -28145.97903347001
194434.5053785419 221635.4173914653 -29742.47113821998
193559.89755526578 224869.17225770032 -28802.89735291039
196677.6399841194 219187.1987633787 -29267.23693692123
196072.6086819355 223620.7035871472 -27591.53386708005
191847.0514634358 226946.2011262536 -32533.569889988128
191784.3343232025 229857.5003136911 -33304.6981046653
193032.0255690668 231579.2735850192 -31225.75905199473
194533.62040148998 225977.4829187782 -31575.35931943885
194739.7756518103 229840.211629989 -32896.24983604421
195965.66231753828 231384.9920079989 -30676.663926795052
193993.15586272063 227837.8686393032 -28220.72748498105
194214.67395967492 232855.6784203903 -28782.66863462015
196259.4581600043 229785.90408520462 -27987.88244883504
197128.1458851841 232642.68683673049 -28251.24333948785
166599.8841848117 203820.4717894671 -26143.158688945343
166240.664534061 206680.3267130609 -25517.651620311302
171623.92731988628 202287.91568339098 -25332.431223860942
170960.2830915495 205504.6641605474 -26639.864119513248
165611.9284103025 201845.9980600831 -24108.06284483786
164531.1117670025 202870.2974576784 -21541.16151781911
165295.6799367729 204693.89688426652 -23608.77608040332
165166.5652679378 207558.8918769328 -23077.949190666088
168847.3398972174 201691.5734271576 -23729.257436693028
169398.10257649212 204773.4050867729 -22815.91079545237
167471.70154727332 211565.9864794525 -26659.77366652507
166139.0179103496 209548.4897052586 -24957.496426697708
167564.4101573602 214413.98455811408 -25755.26566631138
166243.883564238 212389.3675710404 -24247.04086184275
170148.950058207 208627.48045557959 -24953.79920479779
171042.7376628838 212393.2187134565 -26220.11133028673
165245.9081246409 210410.5780058864 -22561.30573773997
166546.9771449802 215211.8630788857 -23287.373791036258
165399.37524442418 213129.1338119275 -21760.9037491623
169552.98113110062 208714.5033826571 -21434.39522017709
169887.3757967363 211987.99849656541 -23304.43495763657
169119.6790841845 215204.541285293 -21589.67053212232
173863.3167721586 204381.4614927393 -25925.568566224603
176670.8450801576 204242.7927508076 -24566.09555748555
173011.5942968926 206706.7694752297 -24023.695096882333
177272.2858535771 201378.1473245145 -25372.418537363
180528.5335997505 201804.6729490317 -25301.91691682742
179196.84534906488 207385.8191581941 -24642.43910228371
179684.3279012558 204424.81960439362 -23890.02952188507
172514.5681697724 203133.7235671906 -21450.36436188631
174702.5579379852 204861.43314216202 -22444.09121139448
178978.8062352624 206406.86055560122 -21444.29772678526
175841.1262051604 207737.949837234 -21995.415382626452
172699.02790379792 209857.44854637427 -27129.39977382031
173477.49439614158 212937.7514708066 -24034.9528581621
176328.56821774392 209042.4955758793 -25154.70739472497
179465.30498078122 212105.5817962566 -24540.38131947609
176671.69638910782 212564.763032777 -25569.17680773925
179237.85820924642 215018.79466200402 -25271.801371892783
173100.1018619982 209836.8182427676 -21949.56471193153
179630.8817129818 209207.44484899688 -22298.909910144448
177778.7589062879 211559.23491451968 -22105.102289971972
180030.902025736 214105.2289476805 -22095.19759725462
164324.28574167032 205729.7499214764 -21116.47451514844
163498.6790916248 203968.5909366574 -19022.624069314817
164284.9792076188 208557.5608390632 -20650.002486428188
167757.8476363059 202371.82284642028 -19933.034219249217
167534.8573682885 206031.5825218359 -20393.85364317388
170116.5379459844 204854.19120029188 -18699.826168898588
162730.7434647945 202094.6592777683 -16850.69467765446
162533.0490670683 205033.5311240074 -16424.777687072758
163346.3814861291 206827.59409874812 -18580.42058727978
162497.7668202287 207957.8825653239 -15948.089539923769
166410.16683782102 204401.4047115335 -17979.25041118641
167391.3391207655 208248.57606843513 -17947.34671699025
164401.61521491501 211287.19981210632 -20119.84846616508
164492.67299147559 213811.69537594452 -19147.04981190574
167721.72476892167 211002.0199706768 -19819.292469513108
170336.97825613938 213086.1008817559 -19710.458406099002
168078.8452082134 215160.5638731595 -18688.67483032843
163329.07869851938 209729.6783721943 -18013.54786539043
163422.4825580647 212508.7696829407 -17214.7733851405
163710.9801392451 214723.5201539027 -16641.250929587317
170154.4723647333 211318.65626862738 -17119.77889651702
167616.0996082546 212994.6748653391 -16334.658144730209
174641.8973310419 202580.3434106738 -19439.03302127725
171882.9408380645 206455.4689340419 -20953.48058088013
174717.08296503808 205556.1046400615 -19567.114814848872
179565.50349645742 201326.355556396 -18568.84894814643
177448.1717729594 203511.0400151655 -20262.65139018908
171747.6261305856 201727.267519988 -18280.57707084904
173337.7450336249 205968.6759996776 -16631.96270428522
177662.4045927376 201344.8891293332 -16132.99139126531
180191.93837666608 205500.8799815185 -17491.11943520801
176320.2525699019 207174.8020700662 -15790.03181506264
174674.5649488396 210180.7833546352 -18556.95366437324
174891.54271063712 213674.9840017582 -20409.36376687142
177351.2922627489 207780.4989030826 -18547.638046787182
180367.797348641 214364.4831704309 -18722.71762849336
178016.08466503661 211605.5044682812 -18479.76394284622
171290.17900069788 208436.9635416803 -17643.998933075258
172908.5580200721 215214.11007449398 -17820.21709758437
179281.1704759814 209333.7457506766 -15942.006519756831
175967.8636424407 214494.502876931 -15911.63145057459
167870.93792823172 217221.4174258936 -24779.31968714912
169622.8796231044 219069.5729664664 -26207.53638121502
172531.52713615607 215456.7272597713 -26414.0147916414
172355.0249789853 219482.1164166475 -24932.5034823594
166990.1469442345 217816.3629578448 -22229.88005495117
168495.09068887282 219845.947208358 -23606.601657390118
167604.64981811738 220419.961062934 -20936.84370878904
171542.6009303402 216456.07649030088 -23026.38713257661
173064.83706151412 220613.4323372734 -22198.127807301633
170281.1570498397 221707.59977331728 -25015.05576131014
172372.2031702078 223382.33024832932 -26272.71750791662
173352.63743553578 225828.3596250923 -24842.05085343087
169348.0903285297 222360.457451158 -22320.01651832734
171239.66072449888 224152.7433067474 -23632.12310819592
174171.0944881717 223223.9764977869 -23409.2572681242
172384.8560281751 226424.4554283201 -22099.072198479083
174889.35384870478 217802.2378575058 -25057.82085448073
175733.8084792513 221331.58530853371 -26006.93970324608
178514.0828893213 219730.1962833572 -24552.73305187947
178542.7880018269 224305.0938259289 -25350.556593407622
176906.7534777944 215963.3028545174 -22535.04316151717
176107.4264279724 219017.8696732045 -22407.51837477532
176890.5683276963 222077.3063124967 -22517.52277781516
179721.75235317848 218216.0247572175 -21631.15386660191
180418.29817174037 222488.53674496379 -22911.00736891427
175731.2232816356 227242.6514656181 -25931.231905520628
176995.94586639258 229470.3878175712 -24201.9717789266
178331.1087668701 228760.1278758589 -26692.09139725357
179548.3423467812 230927.9174713329 -24755.745680073003
174624.0084274389 227993.424618403 -23257.00223337146
176024.7522236194 230007.7123352961 -21584.47544553231
177617.73041642352 226408.17670786378 -22823.83381014018
180664.3267693785 232626.973111202 -22414.49123918133
178228.9928921219 231278.5473049604 -22197.67646873041
165649.455205658 215742.8313332095 -20739.43860536556
166033.27134695998 218352.00491306302 -19497.91081239959
170312.0076191705 217440.9186577128 -19198.155883367872
171198.42861868738 220822.4270031368 -19249.26468028727
164722.08855574828 216340.7025138179 -18057.49036517313
165068.7415951183 218873.3602296526 -16738.490873674058
168394.45031479181 218110.4539592523 -16440.257381663858
166647.7241354187 220937.8776759807 -18174.18983299501
168437.32485553762 222945.4318226461 -19552.76020437189
170303.9974505211 224710.6611574382 -20854.42617503197
171451.69677576522 226990.7718505621 -19337.74021018795
167473.4490136883 223441.69902024668 -16782.25419807897
169378.394229208 225270.5191264106 -18089.1843497072
170954.7544477875 223580.4641745206 -15797.75776715207
172736.9782117069 229149.2843778409 -17784.479497505083
170535.7544487809 227542.60676023448 -16567.62605854385
174643.1352580632 217595.0809497729 -19900.3702944397
175687.9614666394 220713.50147263438 -19774.184613055928
175035.398767252 224479.5067864632 -20401.28517316418
177255.172238543 215644.59372667808 -19014.35085112985
178929.7489081438 220990.83540098788 -20388.71563920558
173784.5368289376 218187.03170587381 -15976.52083030942
173860.9842619953 222371.8492007596 -17596.07343681851
176211.2334313666 224397.7427434861 -17388.777611521233
178008.99338512518 220018.9285428101 -17546.515322464733
178910.2386105806 216685.620877186 -16259.50315573379
179138.0184822841 223362.2316644884 -17208.40734020256
173670.4895912274 228570.9949711109 -20518.251031853448
175008.4208161741 230590.6612991528 -18803.68826365569
178324.451325577 225925.87442540322 -19517.635504989437
178339.57966838492 228970.759564841 -18621.05765017219
177020.932901695 231466.3589638825 -20073.14599909455
179111.7585768841 232849.0983944941 -19907.26343103842
176032.6975716661 227481.4636621428 -17028.669840962793
176953.8500161725 232607.086705077 -17517.9517855878
174163.5895991477 231157.0140117973 -16097.151297685361
180136.6201998514 226823.5100279674 -16606.17023915417
179905.21021163702 234308.2587119611 -17541.7141922096
180710.2187472039 230723.0950225699 -17444.28365724218
183317.8457012274 201417.9684045931 -23661.05923630615
182030.2770994782 205822.8407609132 -25515.807468894418
181637.1523003818 210026.97362090752 -24730.07528835808
186816.884195734 203627.68503379682 -25678.40061680845
187007.8178843052 206217.9962098299 -25596.71966731286
186930.0022510877 208433.4551704552 -24086.02952984923
181397.6738998096 203195.2666808871 -21626.42114795891
182565.6046814649 207515.03291204618 -22293.15176193622
183710.56496622218 210293.9895307345 -21711.37391689319
186036.7742865674 206130.66152997562 -23159.71461497335
185700.0019744206 203389.8011964967 -22631.77634869922
187136.5028091121 210779.0749912324 -22279.24909596362
186039.257616988 208307.7336842028 -21648.30527496741
184170.2915943696 214150.4944787439 -26535.50110059633
181087.5467127103 221400.3745102904 -26248.195974015813
186449.55987909652 212221.5496398554 -26965.36141299253
187440.84483946 215664.0447135533 -25460.92652364777
185330.6863170967 219574.8310263958 -26453.62450248601
182297.807900821 215516.4732177683 -24226.47948987101
183336.36712312303 213314.4717072572 -22041.01432511835
181746.5176589399 218740.9130586088 -24278.83098340535
184847.8188518995 211681.0427783298 -24466.77180926655
186156.05668748048 214744.60829866168 -22654.46625153476
184542.7793757542 222260.551216385 -23290.14350880768
187537.1733833541 221304.60720801572 -23374.77391787927
184563.2829214994 217661.1348833343 -22767.11376942787
188059.94521646702 207962.8498991961 -27158.98760111032
189922.65373511342 212744.0199548909 -25746.48676175727
192576.1349937828 214385.17892964042 -26250.942546213188
195267.20254640759 215550.3597944009 -26507.87519454296
188256.2723397872 210746.6800499646 -25019.38212270269
188820.7915733496 213013.33301201108 -23178.04723410541
191119.10485022218 214784.5132597597 -23818.32479450796
191429.46467826038 217929.6996541825 -24790.76486275475
193856.3640081711 215901.69955038853 -23954.119934701568
192987.8425333394 220806.0013108713 -24759.99548391437
196739.6735606544 216483.74707895762 -24198.80038386485
196364.1757455614 219790.6198661015 -25685.94731281685
192419.3583187868 216329.90937073962 -21539.50086590397
188639.52614527018 218369.1370698872 -23139.7841681487
195253.8281906718 217235.47392682472 -21832.54981561545
197249.83320425742 222265.8758409099 -23160.72832175587
182227.19306912008 207023.2923731922 -19256.60572691944
181280.6718930518 209900.4855033759 -19891.271272365357
185318.48637381982 205652.1717974774 -20857.23495441336
184986.2085791376 202964.4058086696 -19818.78538592829
186153.83208043268 210338.61852115102 -19709.96149147771
185185.8111609902 207908.3767759902 -19056.23710142897
181263.9384735184 202873.5733540153 -16135.183643268121
182042.1121285659 211735.5692069027 -16839.33059565328
184514.7276105935 205262.1623201814 -18094.50399945078
184270.0746162868 202523.8592753763 -16990.36300970532
185303.3807735715 210146.8635039785 -17158.401653536897
184321.363650888 207539.2295380103 -16332.39104359625
182184.5344235905 216209.57825019342 -20759.07222602066
182587.0123751644 219456.00865636911 -21045.898600914148
181739.8861646787 222158.44127214918 -19607.48491548246
185194.68292760788 215444.2428298521 -19661.385031113467
183911.3285910488 212709.52382035428 -19080.09528806623
185038.2007551663 221947.6712964511 -19219.168651174103
183441.1620565326 215445.0827722036 -16287.27068152416
181171.8909032521 218523.2842806264 -18359.403626344298
183441.5943366503 221098.4298176046 -16093.14495020189
186753.862165064 212588.7775758094 -17910.04938962034
184748.6382138704 218799.5992300842 -18179.99184175014
189868.1092795883 214912.0685423247 -21191.6646083193
187815.7226975829 212881.5919609014 -20585.785400851433
187733.17512215208 217898.62794868092 -19785.218439614637
191036.44559643668 216407.727564462 -18946.890006575148
193750.1129672566 217511.8997519823 -19195.3460105516
187482.7247457575 214535.3392127906 -15833.02320477894
188642.1306611012 214755.2991638513 -18524.56534856371
189709.5275745516 216434.6796923042 -16286.23028774464
192311.5359283706 217707.33955948192 -16638.54789769784
191609.0502459083 220064.8208146933 -21262.499877803828
188131.91453495467 221346.06101742678 -20287.38808674235
196659.39823155777 217933.30749089902 -19257.22976050568
195105.5336662607 220521.80398591302 -21298.70168132354
188772.3725358221 220068.1408109222 -16782.6154804778
192744.6807926403 220803.7976438727 -18091.95921371677
195149.6966010105 218460.58450483368 -16789.81516881131
195907.50501114328 222111.154430866 -17673.11223722293
183954.7832120085 223150.26801297028 -26484.121904406853
184382.3747876017 226467.5058998843 -26873.90608105357
181206.06811607932 226988.0013055859 -26476.95273403463
188396.11098127658 223329.0804504859 -25622.24383301146
188568.0157799739 228038.9333099448 -26763.47922871206
181583.0204818417 225965.82578157607 -23422.37001119258
183435.3269747455 228969.6219920826 -24380.89320034531
185989.2496960559 225229.9134512562 -24133.90026211417
186411.46006060668 228147.26879602278 -22421.56556102018
184050.8439929311 231806.33987966392 -27041.632302378643
182222.2378096014 232395.02006601178 -24790.356794065003
184945.1939901205 233574.0033600514 -24829.621912706953
186502.12581050862 230142.9961639945 -25134.19989173271
186810.1602144678 232903.33907556272 -27040.80809327011
187777.8446993579 234516.05099949258 -24800.58069265139
183241.89530606198 233873.415219498 -22415.65911461316
186019.48477478648 234923.8263504449 -22412.605681098023
186637.23826437042 231871.319132856 -22487.11540043931
188885.1591783241 235695.0142171434 -22305.04850747329
192306.6259625478 224722.959691118 -26019.4238174686
191532.0567950111 227589.12305761199 -26507.71877992461
194824.5281021799 223294.02899479438 -24780.89144000339
190521.2139506483 222404.93120510838 -23294.49734721443
189554.21325226812 227705.1883628024 -23771.69977671762
189723.0130329713 225223.92076552878 -21809.67705049007
195785.8986625507 225847.45180579528 -23324.89320180122
192696.2551268615 225075.1923360896 -22894.725436417863
192689.3103824512 228147.39721617452 -23670.049652288948
195293.6036029964 228634.24298665562 -22064.50164309431
190957.0447068917 230542.4650527988 -26528.06496072736
189634.8721163105 233710.2924290556 -27025.337153447188
190667.2266278278 235126.49949722938 -24647.46501672508
194354.3225473888 230634.3821359282 -25834.80829613989
192439.9108451557 234128.9655256394 -26771.24943656748
195382.69715562378 234143.11435148868 -26375.44658539611
189505.7993910074 230941.8746905136 -23269.714580701962
193641.307911833 232151.57388732102 -22726.922804167407
193591.1510791996 235312.38652496858 -24300.44136905668
191817.13116237652 236101.2614278721 -22068.21095020094
196599.3909349504 231894.8757629915 -23941.138693646302
196666.6673203035 235354.3992004596 -23405.85872726964
194391.060475158 236086.10877876153 -22048.44984710659
182807.162174069 225643.95699510272 -19983.32490603353
181066.2728783354 228824.9695318845 -20512.1134597208
186537.1169774874 223775.3477378666 -21426.96106465174
184154.0642099769 230636.6403669621 -21067.82461055903
185705.3471268693 228122.3078874202 -19294.57838610137
186141.06669162548 225024.49121126198 -18593.901844421278
183339.8271355189 228247.1266799467 -17134.485158064672
186869.08309635418 228488.5407558658 -16329.977334753441
189820.7176699767 223862.37429139 -18644.08318397742
189996.9477451911 227134.1373914309 -17572.23958398951
190059.25722736891 230556.3298700692 -16912.356852108118
181624.48827483022 234109.5499377455 -20039.1770599572
184313.6067327538 235235.2987927235 -20041.48833879917
189558.47656510762 233446.50055163528 -20297.94167814433
187258.91164238582 231567.6645581868 -19449.63494849381
187136.0275757335 236148.6707129555 -19948.5688470164
190038.1092063391 236755.7955102291 -19782.48555659288
183906.4432894968 232051.1987665841 -16366.54354940489
182605.9626649757 235542.4699711202 -17591.91212343292
185405.4063787527 236545.7384883926 -17586.59413254037
188873.22316363928 233835.49450098432 -17311.84735364511
188285.03494836309 237291.69648733598 -17478.85810401221
193485.9193704905 223291.6483425293 -20397.72325384425
190162.079494599 228552.8734892755 -20780.60566397729
193927.6567629811 227586.13762120082 -19489.07725752228
195949.4092888027 225001.7522470082 -19152.11811756629
196717.3843204545 228942.4685700678 -18511.2848130064
193007.98019261542 224569.7212295323 -17548.16583993594
191212.0605595658 222749.05630949352 -15692.977025295511
192954.33799789983 229136.1542808407 -16832.99196254136
195572.0849177578 225526.953594674 -15969.892487494199
195573.0492997471 230903.6708889718 -16182.66411030665
191856.7620290055 231454.8223516267 -19760.58732047461
194664.680896639 233559.22993914958 -18591.512221658282
193359.99395610322 237005.67028314192 -19664.551425778
196463.3838673668 231218.9414886874 -20820.27731471709
196410.9526411219 236538.6369430617 -20603.463493164243
195877.1876324379 237388.6203900738 -18437.91158577579
192091.4549925472 233437.028304684 -15937.59974093216
191272.47611990522 237747.1868812061 -17295.1273083223
194144.9503370267 237915.2930562559 -16914.7418222913
196813.2921983322 234719.1652808332 -16738.19423350767
197063.2271981381 237760.80545825372 -16450.57362432464
200878.28831042172 174540.2634800247 -33122.32943536685
197978.17432928723 174760.1981808653 -33045.379752566434
199482.5199841108 176743.2220469431 -34538.26327333555
203862.48064488173 174498.140166053 -33107.929776738696
202579.1106825258 176729.74007353428 -34609.18105096928
199260.40095102802 172400.76807686902 -31561.18805203551
202248.8713332623 172288.3370476109 -31638.007255759072
202314.1885074254 176339.9719884642 -30922.66601903002
198087.9453688548 178958.4402384607 -35935.79138797185
199630.20374944172 181115.04314432442 -37204.56015681786
201154.3374648067 178885.9103938359 -36041.05482117236
202646.06781571978 181273.9955962745 -37257.698792453906
198351.62103658498 179750.995682321 -31776.332180583642
199455.1238834319 181426.5381663195 -34131.44512291404
202456.7863616269 179520.1760041951 -30995.105694496702
202536.03369674992 181337.699833891 -33863.45147987843
206690.45905711228 174305.5340998051 -32848.523181727
205412.0843988484 176588.9193530796 -34409.42814184943
209538.5342041627 174182.3121620687 -32501.54099770667
208131.7106227306 176170.8768831231 -33906.91134246942
205244.57078210718 172285.47529355442 -31612.81662702814
208113.58965440208 172274.20080589742 -31404.211259025138
208417.27996480028 176618.44441087003 -30745.76926310087
204591.1005958457 178965.8493618806 -36001.389386879826
207002.30284119042 177890.6986707261 -35113.05332380688
205616.5961377908 181656.4832998818 -37276.69754006357
207598.2081975144 179778.97969133532 -36228.2455477471
210354.0707532214 180258.39941517528 -36049.4974738067
208535.01418347782 182215.48035448982 -37236.54904295415
205839.64456520329 180020.7745193221 -32349.197898948973
209244.7317725636 177934.8128905935 -34858.81505365637
209300.50347394 179699.532651281 -31146.220977705158
210408.3714157463 182788.7719024076 -33822.36664426013
198607.0659793829 168489.5372497586 -27951.193665928058
197540.0365815114 170684.91604465502 -29752.19802089994
201546.3512730548 168007.6242285587 -27814.58323602372
203539.9902258071 170251.07980259508 -29883.76012364084
200447.50853595388 170280.10455005322 -29770.1661478524
201639.7592890715 165678.7709433953 -25727.90319012017
199463.4431263444 166370.1086537681 -26139.268444644902
203790.4930111098 166304.7224516387 -26374.774299078217
201889.9754491247 172330.9828338501 -26348.927661315258
199284.9745823664 173374.2605155028 -28290.64684051215
198683.8837238757 176488.933733746 -29548.51477122034
203216.02256138268 173579.9860796151 -28925.90642838384
202207.8084567771 176325.3387822745 -27740.25366511106
201366.7955662653 182328.6129100118 -28773.88545532609
201890.2600472682 179495.91670358912 -27359.64239886468
198828.3960227622 180405.22072717952 -27670.15998551732
203977.72598192818 175518.4153314585 -25306.147026388662
202975.74727597839 182450.41713361102 -25814.56834304053
204919.1264554601 168344.91300486 -28166.85778410282
206634.6505231205 170343.11469501638 -29847.00102694673
208027.08583967152 168429.1812445794 -28056.22101908772
209536.1573708071 170395.1055711278 -29588.00680713647
206520.4486024641 166562.63011821118 -26536.827808992013
205803.02669267228 173770.3788139201 -27128.57789714769
205828.0407995591 170588.9687999057 -25596.20757824264
209424.325310108 166540.0078770133 -26269.82147440516
209613.2228000008 172508.9110020254 -26483.10580722509
205335.0744971445 176324.7701651525 -29916.03998223084
204552.57120450737 183030.7060980039 -29621.83497168876
206223.9555378289 179713.5613808678 -28419.435859515568
209583.2121139801 176019.57230284548 -27820.59572829694
204253.49817796372 178911.7418714169 -25268.682909399038
206310.85441761182 182688.5490298687 -26671.38567270905
206919.8150980487 176736.1070032639 -25714.766267325038
209305.60506338289 179741.0251133943 -26015.77535947525
199887.9888109235 185935.7581478759 -39004.92410698735
198262.3786884796 183606.2407880598 -38107.722398489175
198520.27808261052 188450.14508035232 -39787.65820136356
201217.72790395492 183666.6998156458 -38159.12232807919
204006.51992545242 183807.5122172568 -38121.2831975814
201508.0516966184 188393.1366290742 -39775.42028170739
202839.7451822321 186161.1327170713 -39009.73112464448
199584.0156357773 184426.58790624258 -34876.29852726985
199787.5063607767 187970.64653894698 -34366.36344997889
202674.6264937736 186673.3693848092 -35574.39009747198
200125.43201334547 190971.76617115262 -39956.17600883579
198954.026129545 193615.4653306246 -40139.95637929177
203087.161394754 190829.03863733402 -39911.76172724295
203316.80326797662 195939.2310669734 -40171.81705080448
201718.8944628571 193450.6862857452 -40096.72268110445
199353.3654870434 190871.4941769372 -36445.9278428044
200766.2845259334 194169.3831548384 -36210.19184647196
202844.4222788813 190033.1466687914 -35975.37021101202
203693.3522624415 195419.0371165459 -36964.61765462788
205154.8622891021 185864.9954889007 -38759.39693955542
206718.7884243332 184274.7420930709 -38088.22989759045
204841.6876072189 188304.56796399658 -39595.81837210867
207320.4002096855 186752.1005086708 -38813.484905882295
209546.5822579505 184913.1058566939 -37940.61102772142
207459.9250023119 188941.3021578095 -39427.20708258952
210183.20603801918 187929.3175375652 -38614.41925415228
204471.056856459 184092.8369465866 -34312.879358175225
205580.3416740119 188047.0652700665 -36588.874512140865
208405.3154532748 186126.2724838763 -34511.130370875886
207612.2999505446 193201.47380088322 -39856.31127395436
206056.6612963194 190793.57081289272 -39834.43802811446
204680.4196234332 193313.0317630837 -40004.576754366935
206273.608617007 195817.1078940292 -39994.31445045769
208953.22412959608 190723.6286010241 -39501.6127004419
210495.2794996727 193101.94527006478 -39295.80158938342
209225.7822948216 195685.4270458377 -39786.0922568497
205588.15869443008 191301.5322572197 -36782.95285925303
205995.62790313992 193948.7001871155 -35165.68601436759
208146.61834347752 190248.2512515389 -35322.14328920326
209751.24673579627 193173.430767543 -35978.60986788974
201491.99286355058 183894.8247445983 -31886.541900305718
198957.8042087438 185873.0895128158 -32068.41434713158
204031.3301188185 185767.7746381391 -31238.34347371708
201982.1810987796 188225.42842807822 -30867.85414538262
198300.3718399132 183511.0578491544 -29522.209676838967
197775.5444931176 187421.43888646562 -27015.53229127633
200575.8766066292 185807.7459391967 -27818.55956641557
199285.123291214 189578.25965615918 -29937.51809960763
198452.73835856718 190942.9790009521 -33049.85251750133
200056.3347648443 195717.29454688632 -32345.120849367006
201900.1373043929 192295.3827318149 -32785.047601128885
203379.3392434754 194771.4315632354 -33807.97412018367
197494.6848675916 192178.8207833878 -29902.72755700812
198476.64894228 192569.9029710073 -26843.99225565256
203504.61568886932 191043.4495373831 -29709.40576984836
201057.6762122461 190354.55236918922 -27442.47820555237
201702.2511880265 193879.0103732279 -29150.72012953437
203713.2580446914 196041.3475036861 -28266.073587074232
201398.05693316562 193366.0019111997 -26087.142498822883
207533.3414911339 183278.3379442164 -32131.10284422789
207122.6660398098 186577.2535455881 -30832.48349549605
205125.3969387307 187801.2744858922 -33525.17723221516
207770.4811407456 188971.8901982764 -32589.15030525141
210094.385619092 184718.453037521 -31319.19216621887
210392.0855126979 187730.6211437844 -31680.15688656475
205237.7731734141 186418.30787721789 -27805.96307743978
