877
114.9143220206616 103.4135451570664 -9.351297046592228
53.30009240259444 103.500073384016 -9.320663490013185
53.78483185360979 104.6251661702611 -9.257001481263552
63.99703047146619 104.5521548535335 -9.332090872118732
108.3329987497277 104.5695798149915 -9.502077566499127
114.4551352145191 104.6886897576809 -9.4146052277582
54.12820232925665 105.9044056836153 -9.955498066670469
53.90843690840161 105.8178702576714 -9.199397212060099
64.31896786263317 105.799039248469 -9.408302127526195
108.4062666033597 105.9196751662608 -9.2373193460308
114.3011404643562 105.8916194885715 -9.304300218025617
54.64205896609324 107.3342236808118 -9.377921479418951
54.1054428555132 106.6070416565131 -9.376871821653479
64.39353178581686 107.003877460955 -9.317404126880289
108.1913587624388 107.2361095076043 -9.369398545324112
114.5121350020184 107.2667885253091 -9.360824736794212
54.64284746171239 108.6524397721241 -9.368109336366047
64.6895779427942 107.9375490376473 -9.329983077568301
108.2887266316861 108.3738464041101 -9.323023986140818
114.3804704293993 108.6877034931644 -9.296864020167819
55.29684205365805 109.6243317847264 -9.445374177485624
65.2535247812035 108.9451193981171 -9.380673708921094
107.5198280300784 109.4413613113856 -9.370819419030742
114.4513363204908 110.0197786633029 -9.407277675565307
55.40735326094673 110.8153943019156 -9.517488123838502
65.5517476800116 110.0187760419425 -9.37967310089833
66.15764168842858 110.8635738685589 -9.492352838196133
107.0293763397414 110.3200708806508 -9.405638437708241
114.3548966190629 111.2126026146777 -9.381714765599019
55.94642685988823 111.5365646589376 -9.529383490773693
56.61780875318077 112.7308131168335 -9.182457366577049
66.30559997112157 111.6194360237119 -9.412136776890044
106.7108302637449 111.273985765873 -9.430673991676525
105.9974713961326 112.0437321880546 -9.432531322644474
113.9863888190297 112.2713678789323 -9.51977527394158
57.56299976131839 113.6803313097902 -9.834513214915649
56.55707666600983 113.7590393797188 -9.215976449206682
67.11656599820783 112.5510226927773 -9.365711557975636
67.69513587253711 113.4137728490196 -9.396231080373676
105.7005180155594 113.2728026860511 -9.487251192687861
113.8002442605836 113.2711364913348 -9.399369997713441
57.77662528826481 115.2462679217114 -9.338245999320785
57.04544471600769 114.4652306400998 -9.149519616654423
68.14073222771617 114.6751183449213 -9.176273750625505
105.1312186258294 113.8834208668121 -9.426477161538077
104.3744296738874 114.5421690109448 -9.424216052248084
113.2948870106153 114.2011913429741 -9.290591245094905
113.1699971276779 115.2364743814412 -9.385804043114574
58.75291980411437 116.2157885192991 -9.246674490836101
68.68959795036558 115.1585315866881 -9.379041176576809
69.2921755434165 115.8245186023842 -9.399794343702016
103.8253593514486 115.3669455058797 -9.430895792184447
103.3303538311524 116.2574185511864 -9.496678831083857
112.2212892291998 115.7011874400008 -9.484262419784006
58.89104101098284 117.0632820915762 -9.515001390732797
59.33334960315092 118.2818900608575 -9.303962756504449
69.84315193260204 116.7824134782582 -9.402685035469828
70.25601579551464 117.5747018367273 -9.366127908071235
102.6716340732065 116.958906426285 -9.398409784843565
111.9735416236447 116.757968488574 -9.410830658424411
110.8955894871688 116.942685961342 -9.201908518111072
59.52356424842416 118.8170604871442 -9.37241018304959
71.12447267746717 118.2240284411469 -9.376822320893156
102.0297825413613 117.6198748710821 -9.367307702977824
101.4425637292555 118.4956921821288 -9.435990675311272
110.0538781874331 117.3713036188236 -9.564420488069093
109.612277889114 118.3816004939928 -9.387458286587956
59.91359426092048 119.7834698008103 -9.507509585374272
60.86064247105892 120.5377724930026 -9.210793091150538
71.54708112414887 119.0165726399753 -9.443384656305753
72.55477503823758 119.5273499367468 -9.392521449431158
100.6372049022803 119.0972039501469 -9.315393651951116
99.87721637140147 119.7078520422523 -9.420629992102196
108.9131391679515 119.1503304939072 -9.239242802827404
108.1114304042509 119.6926073253663 -9.297614535163001
107.5092136911478 120.6851214992886 -9.243033988395149
61.09391206420182 121.4437743763518 -9.28781104869126
73.31400825524396 120.2398565082851 -9.376544440310802
74.21907921770051 120.7085927303868 -9.318022670205311
99.26457180847662 120.4845278574699 -9.307804619857674
98.78688501754856 121.3127415964141 -9.502210838851912
106.9295193604226 121.3212558021737 -9.346109788782744
61.82773202449724 122.0846338587014 -9.236674641806712
62.51495918744349 122.5959300585648 -9.253668999286598
75.06303097743339 121.2812876512315 -9.359647736958811
75.98992121177361 121.8009273193916 -9.318603010447342
76.97306518981205 122.0318202649157 -9.397204893011256
97.69645735573259 121.898871046971 -9.543237205278132
96.7996629188533 122.2574806431982 -9.398118827127353
106.2406326607627 122.0826997064569 -9.408181102745926
105.6445755129097 122.8172334735912 -9.362359171496825
63.12033034844316 123.5832053771353 -9.287124629129394
63.69477031935483 124.2917738671618 -9.299096865096727
77.77377438647284 122.6919892734172 -9.372643001068566
78.62215834174189 123.0775877854183 -9.450825882037478
79.63051983075238 123.3752893183734 -9.396072582836609
95.84700066047272 122.7304965564084 -9.400855093822983
94.83081478483646 123.0207304426665 -9.388818361911781
93.86907473540496 123.4288423814069 -9.305611221721426
105.1495321760044 123.5387978621295 -9.368817412959253
104.1268101711846 124.0953207459563 -9.340579565751526
64.55139232067535 124.9026547112692 -9.196035531520513
65.0700542535857 125.6288512039791 -9.300531652532676
80.62635146841274 123.8419765295014 -9.418821771511919
81.69640598901262 124.2637523689802 -9.344358177137467
82.90217491425986 124.3764317391243 -9.445991315828696
92.91648954199978 123.761791947595 -9.403902372399921
91.92277222336375 124.2389974603227 -9.328466029615365
90.85589890707742 124.6401223585548 -9.414455925378912
103.5630895878577 124.8290542914756 -9.396633360446399
102.9458773450828 125.4799629606946 -9.408819377276087
66.15772421192011 126.1860085423114 -9.254412609126593
66.52591266254834 126.8356003798375 -9.190569181330668
84.18388651929104 124.4522994058863 -9.370319945905351
85.7580113081171 124.9167980394436 -9.365570862103452
86.85566630760344 124.5348476557284 -9.35973680599734
88.18397012883349 124.7168653342829 -9.385819607768836
89.45975145188507 124.5262140579951 -9.451340604737851
102.0724593013403 125.9496197060643 -9.272735777184018
101.5689692171901 126.8208911673757 -9.382146878052454
67.42313065585323 127.668191016416 -9.242586044181495
68.09083361725635 128.210727212269 -9.23946406241944
100.6242865156434 127.1597751313247 -9.373895109298218
99.6809264368638 127.6115075729564 -9.42227348861773
99.06991946341321 128.4558621092896 -9.423837202904306
68.76423432972682 128.7126971376574 -9.192385344325505
69.47272721727337 129.5049064939388 -9.301699478116831
98.22317978705544 128.5156573256226 -9.493716461543258
97.64023057962754 129.7483249296328 -9.360532692347231
70.32978353659054 129.8467192127493 -9.370353582718634
71.09040730048433 130.4222537039873 -9.465765248857748
72.07257218721342 130.7206615286583 -9.195353649226178
96.65123021422214 130.2793152034885 -9.353702577590226
95.9566587266919 130.835115421624 -9.26623593902467
72.94623361361269 131.3512089334002 -9.471658546479876
73.94772427408226 131.7302445989959 -9.34397187588203
74.88072055541254 132.1888179887283 -9.321404464878228
95.31979274616155 131.5062820550201 -9.324454850763368
94.35668605561651 131.8290729505561 -9.349312161434193
75.90494796266154 132.6010281477159 -9.283999611237384
77.53433226865408 132.9433530203887 -9.673414843021151
76.71219991222888 133.1147686527753 -9.233170332591467
78.66815118167031 133.0506936804543 -9.837168496380954
80.02994924305284 133.0842538085909 -9.969056121900405
81.27726495156905 133.168718174452 -9.955258121144009
82.53835066621311 133.0180452343447 -9.975597744046587
84.09307270965803 133.4885604589704 -9.32132936246995
82.67471670298039 133.5057778251716 -9.183588913323142
93.69767436820419 132.2434330292152 -9.26305397902529
92.80733003147303 132.7973544484771 -9.386134219893847
91.71960296476249 133.143618519812 -9.435120924470427
85.59013258085915 133.6035446582615 -9.271935484167043
86.74372445727582 133.5793471094075 -9.408420931778924
88.17227431184436 133.3872547155687 -9.495207581785863
89.47960813413843 133.7370076034144 -9.349743221232551
90.66440351089969 133.537024465806 -9.370190203551877
82.88493356862384 66.29512361256137 -8.008836856145564
84.164007689413 66.15010493201109 -7.836310191450345
81.46795580946601 66.41604149287734 -8.62151836694264
81.81420233116245 66.31909472564527 -7.841550809779497
85.47691046417316 66.06975787500085 -7.829318203349024
86.82731703971585 65.98810295347329 -7.959308543350571
88.2076230877808 66.20441500952009 -7.907704955609267
89.44751155971549 66.17411280677516 -7.968741259792113
90.66164892310951 66.48282112018981 -7.955434621923675
91.92399998082281 66.7255075565855 -8.519581055927771
91.688667663969 66.55197728509775 -7.805773498847852
75.91776559770554 67.59849794861657 -7.916579317682119
77.30388479749898 67.30179104091579 -7.897375731911032
74.76850870851183 67.84344441082699 -8.93036123597777
74.73833885513739 67.67214546007398 -7.895952523369442
78.61789641933026 67.26448623986883 -8.067392843149216
79.83044523077427 66.8626663547017 -8.016189439355831
80.93193461243058 66.57803786703418 -7.850273224760167
93.13663106341068 67.59962071943414 -8.190027610095942
92.48511292546775 66.72267165694379 -7.872531574844679
94.22950117896406 67.76633030859688 -7.999224067187869
95.17191000830118 68.32646494672696 -7.97409969301214
95.99256608405231 68.91562078761356 -7.933464721335758
70.80320455833277 68.83081474458206 -7.955498985190247
71.90305874213568 68.84599075820979 -7.802273625367448
70.26110541039516 69.43467998267698 -7.931486117194678
73.32643657058905 67.87188178539013 -8.603102481869016
72.81172427344646 67.92051996994178 -7.794944915777842
73.62325616542675 67.738036120424 -7.772490072219986
96.74017618130284 69.28746724121902 -7.984477604288317
67.92992881140646 70.5711177685354 -7.858729725297656
69.03008542259818 69.88753359482079 -7.844025741212443
67.26036517975022 70.68967139841401 -7.919432394874758
97.46646367875786 70.02480952789651 -7.871394490523478
98.48766327186779 70.45807835227649 -8.034362892904527
99.46777642958517 71.04350999788093 -7.9681326506076
100.6517199449846 71.84452894187473 -7.906318826566601
65.25649955765158 71.6602265380799 -7.90505188062089
66.36450371134515 71.24393675518004 -8.027559111387848
64.69065763442686 72.19229427067 -7.858624695890482
101.6809441764014 71.96210351919632 -8.681317795211317
101.3296746553732 71.80460349508992 -7.850300728906715
102.9127683024805 72.6504268326434 -8.020997759902627
102.1604287462642 72.10472755229105 -7.835775588669875
63.89066159405562 73.15514786482612 -7.776390918134266
62.34991978830369 73.36297340121399 -8.642336387852851
62.55931213416358 73.02253944089003 -7.848671348768639
61.51142026683799 74.36357114047354 -7.979995122229931
61.94548195094495 73.49772684107934 -7.797818120729621
103.7786160370817 73.30549630362665 -8.026489037376487
104.5698010749715 73.77520737181298 -7.995374176855212
105.3284008736398 74.77090561156501 -7.859083743961259
60.57750668617546 74.96026803631752 -7.970565885068817
59.63693585357333 76.04697002032255 -8.682071959019378
59.93310118228138 75.71534513944367 -7.836189229683968
106.3746178299503 74.8658759821456 -7.918841352972812
59.15917727148852 77.41322896391631 -7.965298579511099
59.47033972099616 76.32154066189753 -7.861427557864611
106.7554549183355 75.77156260547096 -8.012427034070766
107.5995504096045 76.26735821493978 -8.013584342398348
108.1618560084482 76.99627256225489 -8.02939583923922
109.085605644387 77.57832224873948 -7.96277622228432
58.35467911485088 78.31170349847457 -7.889124529172129
58.02871043667412 78.95148611914848 -8.006179999416947
109.622340283733 78.3519965819228 -7.965505615681005
110.2134747120141 78.98530865469266 -8.013226712111642
76.25452104689012 79.55399147600355 -8.040078806879869
75.23346928558719 79.7229063289374 -8.125950418737261
77.4097675165352 79.3262570506199 -8.016712760795137
74.25382380012944 80.26869742555212 -7.945265922976033
78.66916777278692 79.2366061944589 -7.99678105320267
80.0179599001081 78.8739884745565 -8.084750067767009
81.36133721964455 79.1474027658702 -7.977781642550654
82.75541755420353 78.93001049261551 -8.028314908507152
84.06601598215042 79.17245282259077 -8.035478824792722
85.4098116435153 79.15957365094485 -8.067246336469282
86.78970450118752 79.27247841968155 -8.013363470122464
88.04612837467666 78.87662733512508 -7.998743976997122
89.3536398905446 79.21524844588912 -7.994761086432199
90.55196948274181 79.46912183202932 -7.94770195028644
91.73477822397676 79.72185719956698 -8.09497112545192
92.65995874769493 80.20209384439976 -7.996613577617407
57.65125654721855 80.122468990653 -7.91423725712283
57.41132639423204 81.38266967471472 -7.903347608014146
56.88721280096074 82.04952893053755 -8.024726341263712
73.29058608632427 80.52364492919193 -8.063484499398463
72.40543061790532 81.18093591586484 -8.033030495461018
71.49903349465953 81.74641940395703 -8.052024125135837
93.65199491393577 80.58924451267421 -8.044812410431593
94.83688878122966 80.71664741425131 -8.108022768812075
95.87815261628137 81.13428570557608 -7.983238494562635
96.92027301937799 81.37419520413722 -7.95020577483055
110.5291581241828 80.13913001872581 -7.929581929276816
111.3538623157592 80.71986955275763 -7.959577089496795
111.6318484230501 81.83047690210596 -8.040354151816562
56.03558288701204 82.70656482157192 -7.971754266319925
55.77909155059836 84.22565449759657 -8.560018533928318
55.64654116708765 83.69787887925955 -7.818545272551177
70.48623460416286 82.12949433819938 -7.979356641123656
69.82746609146622 82.69507817532327 -8.022847905040233
69.16800369000998 83.53195932939576 -8.018669093995452
97.59200015353386 82.18925453981372 -8.00391001958493
98.55361958601563 82.50281803519135 -8.040924195373732
99.35609846470179 83.06499408460019 -8.003809392942598
112.5777055930376 82.82480489445418 -8.660001691382682
112.3169248927481 82.42687075386851 -7.808976828862184
68.34300938174488 84.32049359914589 -8.015042800277868
68.04545977339764 85.24663026828972 -8.05468489600189
100.2823340926693 83.51525339910955 -8.00793107570356
101.20631368106 83.83102145366975 -8.064783478494698
102.1608726460174 84.28329006248872 -8.015415273215032
113.0245790098303 84.28128301031109 -8.056052000388005
112.8103843960038 83.14306640733369 -7.834028585106793
55.44451147652264 85.41929548013414 -7.672892305462959
55.2551663847813 84.49388019471833 -7.821570843388669
67.48296297954317 86.12990470308958 -8.039609738951405
103.320784201731 84.72460086139549 -8.00646413574939
103.8277328823975 85.54825931797959 -8.023241031604638
104.6862490371596 86.17846390422176 -8.007321118823256
113.513069157471 85.35574504054965 -8.022721508104864
114.0554716522467 86.13468272427055 -8.106570439940572
54.75990429471362 86.73300822674473 -8.095806654397972
54.2976638013641 88.3139026052457 -8.613206408896545
54.40179061203443 87.78792189676578 -7.866152984601554
66.97397651667502 87.02021549786576 -8.051766527828123
66.58561900269207 88.34394874508186 -8.045519451785264
105.2142226078182 87.03528041712235 -7.987840062235976
105.7957903531538 87.92593146321236 -7.9850165285202
114.5738061037304 86.89304272297039 -8.051361793953548
66.01151640375528 89.27839139503314 -8.116906629068016
106.1523218202634 88.72669044916034 -7.987396036001263
114.9520470088417 87.95012268636674 -7.931351420068313
115.6271038051707 88.57936005475456 -7.882419551174999
54.41300823342411 89.72273469711239 -8.024040969004719
54.00372172589312 88.63224733777696 -7.796810084817504
65.73230470510323 89.86724316967897 -7.923983851571977
106.8818226578145 89.37948683722948 -8.093395299512078
107.1182818279232 90.5856964261435 -8.014507332516782
65.70553767377368 91.13718853078042 -8.060769376929436
65.14927182633684 92.26034756960803 -7.924360520804242
107.5380299845531 91.61396262754474 -7.97756802608776
116.3410884174571 89.37926813032108 -7.986930656376945
116.8034675783535 90.69474376293584 -7.976740384578333
117.1658570421207 91.55238051566013 -7.882737308437586
53.73875779515679 90.85545929650634 -7.960419245476453
53.5340764598657 92.18476358581353 -7.960521412226051
53.25636238127818 93.46419071546187 -8.138685169677968
64.84147595681551 93.25879202121833 -7.958522412564586
107.7895204771026 92.65321406355957 -8.009815372277748
107.8658778046589 93.82255517562027 -8.02535028019776
117.7916412681439 92.48255824641265 -8.470286348171923
117.6733277515844 92.04202904409222 -7.845897154652112
53.03352348642603 94.59498503555218 -7.993118673451015
64.87389370453475 94.31183732328203 -8.012982535495404
108.490887998032 94.75239554673965 -8.038073091776235
117.9386634869904 93.75357545561332 -8.820353896540571
118.1067248041842 93.72367033718115 -7.714654098474236
118.1525010077989 92.77034185215216 -7.716726904252684
52.57970797733776 95.4233202647836 -7.844105880050724
64.20754346812598 95.44027212740822 -8.038243843488324
63.79739666600809 96.5487101882353 -8.196879516449521
108.4345204377408 96.29262927748232 -8.043140350179248
117.9750092598186 94.9300568113118 -8.515656755644416
118.0971132499873 94.54111420519149 -7.772541591809096
117.2528991384125 96.32585200177662 -8.020537283826807
117.9678257508133 95.32774904631822 -7.759745590052456
52.09920433148226 96.37675796667021 -7.991693254493116
51.94126790018621 97.99251123466262 -8.301311523642919
51.54375946081583 97.31678112044935 -7.695169911733396
64.20573791732427 97.8391160079432 -8.017540398703238
108.4042243116396 97.77107990232977 -8.034402090874229
116.7254337610709 97.16900335798226 -7.858224961314302
51.59886676813939 98.90909372948988 -8.273707582030333
63.97411995319426 99.21303225394756 -7.981976681131182
108.1320730163002 99.15731867977073 -8.059991218204784
116.7297334850734 98.26617822736483 -8.008177226523795
52.20857670219708 100.3491692639864 -7.989600477657766
51.64928184260857 99.36995837459061 -7.648482248097427
63.87619770627435 100.4693139274224 -7.948287209955578
108.2995808553811 100.5237572228256 -7.955738346579955
115.8702572108931 99.13769307957072 -8.264362790395875
115.8112551815112 100.1934275159735 -8.067860230132814
52.40279879294221 101.4226798971732 -8.003852640304904
63.88669616782378 101.8251998864491 -7.96198443967832
108.4098099837126 101.6948618449153 -8.046799489221925
115.3815485652936 101.0877953042965 -7.997178874907062
52.91349463808364 102.2564653479359 -8.067377451088905
64.04158973122453 103.2380319096584 -8.041538745499405
108.5901821081712 103.1190687847033 -8.074315405028065
115.1398555758915 102.2060178770053 -7.995426841042612
114.612771018479 103.2872176763866 -7.940490219547677
54.03917052123809 103.1953910327906 -7.820621467286322
53.37755142845126 104.6547829870741 -7.995337616667134
64.05176658670408 104.5040303553947 -8.023795040765716
108.3656232770904 104.5421282482151 -8.113551595106815
114.5497552836091 104.5921374593691 -7.98867810896525
54.14774389911413 105.8609925168692 -7.93162297498987
64.05301182004428 105.8669412082664 -8.036928967142327
108.4732624285573 105.8806789802304 -8.017342743475787
114.6266294453462 106.0484094049564 -7.976721402059511
54.21766576471629 107.1419094988586 -8.647350567401428
53.97741867120543 106.8806667877524 -7.799506876724119
64.5732576990125 106.9451278406949 -8.032886820425507
108.1247767684887 107.1631118495452 -7.99968929618729
114.5082455781622 107.3266032097026 -8.055876608808813
54.67676976962698 108.7983629230269 -7.908888911195779
54.84810069872612 107.6220578581533 -7.594956825617889
64.8521256881741 108.0275979425617 -8.02735459030076
107.9148106042418 108.4189821042405 -8.076410946622019
114.5346324784743 108.6881319280287 -8.073933118620428
55.18602692981885 110.0525705042371 -7.95799323545385
65.23448542173583 109.0315281879047 -8.067401360615396
107.8361794736142 109.5671183749248 -8.191295500184227
114.6588416753959 109.9259426344568 -8.031913737297959
55.73225515853969 111.3252211636841 -8.668500709118177
55.35821577090168 111.0028099859085 -7.819927977434469
65.44048488885073 109.8696144370733 -7.949153350472494
66.05517723289961 110.8081270580279 -8.055933784830973
107.4844548101615 110.4082640438684 -8.061187265652181
114.0742232749117 111.0163233492741 -7.806335653036944
56.33354479399917 112.9257343597599 -7.90458178724854
55.56769894769329 111.8946438194758 -7.889963230013525
66.40231323940203 111.8063546087877 -8.018069938615261
106.4301496241327 111.1753800075527 -8.034044776325864
105.906737855364 112.0365728581225 -8.03229411902287
114.4071743781787 112.3812279887313 -8.017694777762683
56.37563803163336 113.8620608913699 -7.992701340086748
66.77187192687302 112.7279377097953 -8.136361814149941
67.56185145154693 113.5391596181451 -8.055287843840151
105.3417224424107 112.9992475728037 -8.030171527124745
113.8498014406538 113.3669205212933 -8.047178255151946
57.20738902748938 114.5167685664703 -7.911658001616733
68.14608711218219 114.5412987332228 -8.015731329609451
104.859546405935 113.7171639360339 -7.973234113540433
104.6467634195599 114.5252837355665 -8.101770439076979
113.4558279631796 114.2820509013103 -7.99364636114788
112.9238101934254 115.0826834062715 -7.989675598910629
57.58409886524605 115.7096000929814 -8.017945535525731
58.2236618000962 116.8188855919948 -8.651006071961172
57.8984843580733 116.6378094510211 -7.892144964630665
68.29854337516817 115.2439198354879 -8.122311621596676
69.27313897597404 115.8438846821493 -8.048076666130569
103.6867494241941 115.2817725605078 -8.01971335155625
103.3566804266294 116.2246709177842 -8.012539312819685
112.3961757219533 115.6669593442755 -7.979462624888463
58.95036624885539 118.1470692830169 -8.174606450769009
58.23593688342601 117.4085350123861 -7.888723219851089
69.2264895824006 116.7424046352444 -8.04116393010702
70.32672336560142 117.549981403587 -8.01297077092611
102.7621737510144 117.0027535876061 -8.087048791230869
111.6630567404766 116.5847055065526 -8.061602464916573
111.2429271065718 117.4179543793457 -8.041388697161064
59.77883807212979 119.2779668074855 -8.653665709610737
59.53046849522104 119.1101977600656 -7.746589238817245
70.88419072524221 118.403465761121 -7.967533899952994
102.050541932135 117.7356773585034 -7.999369611152518
101.2998219840673 118.4564788649382 -8.059007196659175
110.3170474783491 117.4371215336543 -7.866399502512735
109.820571875786 118.6693969972249 -8.027916969358035
60.77612187221886 120.5134926433608 -7.938264928726287
59.77515770944997 119.9705965473464 -7.884757681890823
71.59254615941785 119.1626390373838 -8.082522632962576
72.45989245730171 119.7923539239093 -8.118823430124555
100.5641126592997 119.0441186592261 -7.991595942555533
99.96286794864577 119.8034595196224 -8.008687769198886
108.873797237644 118.9902464727936 -7.959543944908407
108.0495112580788 119.5025285892244 -8.078968737593236
107.5166495870731 120.8995563109768 -8.088274194919727
61.42253393836149 121.0572351863506 -7.954877052782402
73.39248470225894 120.2172911922249 -8.02896689758928
74.2326431485692 120.7616926625243 -7.972755598889908
99.22653110212705 120.4621103591993 -8.018836634082231
98.45637960768703 121.03341051014 -8.080745565207931
106.9602880181776 121.1295686674573 -8.059019292292076
61.65265962251402 122.2807233737189 -8.052244981472315
62.50795831111181 122.2284758473035 -8.148970682786615
75.12961954662913 121.1358437109172 -8.067322814697924
76.06030101217829 121.6592190844987 -8.070030091316589
76.7503421450528 122.4849776776596 -8.100884645460301
97.73188784816428 121.5147975307351 -7.961155514185711
96.83815534999731 122.4035261064794 -7.899109204709978
106.4195153267949 122.1664157106768 -8.029527458283289
105.8766216679451 122.9136207414251 -8.016685692358562
63.21207266828672 123.6962877718948 -8.072681558931086
63.73341301913428 124.2503770717323 -8.163561395419014
77.86157096699469 122.6613706180933 -8.058340211241319
78.75968312112522 123.0048276319205 -8.095638218877166
79.65283575847816 123.446187295171 -7.988249824057781
95.72984467475413 122.5562594222791 -8.00483345148222
94.84799438507414 123.0582144345422 -8.038617797462583
94.00753321086114 123.4565824704397 -8.052844885216093
105.0403042476196 123.3925041171894 -7.909358702897833
104.4569069633396 124.1707217722671 -8.098160207278839
64.29907650461732 125.1068571873048 -8.056468088949204
65.52848692209038 125.6245329376294 -7.934238298644838
80.62333839163654 123.9958487623434 -7.932537925234321
81.70727093858147 124.3454915503563 -7.960333663490587
82.8513245684548 124.5749843974891 -7.943157459374937
93.08997227292839 123.9245364489725 -8.080297249986536
91.90777349178413 124.1245015328162 -8.042382735491319
90.61819196954492 124.6841009897023 -7.958463612047407
103.5503299418926 124.8299117757716 -7.838935161804139
102.9741091502715 125.5367080874964 -8.006068252039716
65.74340544535171 126.3490231378113 -8.074331705411122
66.44826186834476 126.8168702746077 -7.862029800733017
84.21344598514008 125.1117458945231 -7.950480022066738
85.46799090471384 124.4202716050474 -8.031559899563895
86.84143796028684 124.8342226806542 -7.950381885609425
87.93102443545349 124.9992484678949 -8.138111571025995
89.44158990151507 125.0140402733564 -8.09397874735736
102.1689836173036 126.144005108338 -8.046550328395163
101.5786940350148 126.7927801575812 -8.025257316311505
67.2555074488433 127.5593635848014 -8.042041886718911
67.88598709794135 128.2823137339178 -7.935326077574921
100.4905696949472 126.9818772042721 -8.12968289226011
99.66786991423389 127.6594197249916 -8.05557660766104
98.96487132920552 128.2404075952868 -7.861395211095294
68.53367676354098 128.9568219127746 -8.003955579772958
69.42153489351492 129.5775268520711 -7.996219490862197
98.32162054262372 128.8658513938234 -8.044244915942492
97.28699163788781 129.5438027063835 -7.899790893484716
70.50401451304569 130.4969804773767 -8.678407544083973
70.13553567703526 130.2222317535633 -7.83802628016786
71.74859389688754 131.1715627516381 -7.951599430633699
70.81969772571755 130.7944840496218 -7.853376228999417
96.55888391881548 130.4864991845133 -8.01670484828176
95.99320180135858 130.8003907267393 -7.976158996280523
73.28054496579645 131.7911962786383 -8.665396642888837
72.78981635180045 131.6808693524522 -7.932834082090727
74.71207640689084 132.2233958223469 -8.01148748640105
73.55101534908998 131.9336709704347 -7.729213950639131
95.44784613635817 131.6206162220252 -7.992169883167488
94.49165792696178 132.043456425475 -8.038257864663207
76.12865490279425 132.9632842007416 -8.460665503813434
75.65719895509282 132.7877342809374 -7.78917847252039
77.49974374533359 133.2275851489487 -8.931828384124014
78.71813650256087 133.4373232255184 -8.910248798931882
76.34764578437446 133.0920515173472 -7.811819248809081
77.40641565866956 133.3591201367458 -7.792856138806169
79.96482913534662 133.1775132879544 -8.919829826020647
81.40053954073012 133.1393470951637 -9.058910810216849
93.73618949572302 132.0410967782442 -8.040520878428033
92.66387297938601 132.6812307393052 -7.921198602111987
91.76348276955304 133.1187758751419 -7.949394392089557
82.63037773962003 133.3202189806338 -7.85556141545131
81.40292824749122 133.280306651525 -7.797972737215453
84.05393110285436 133.5878225191365 -7.972135383537267
85.39669787795968 133.6225325992237 -8.011770934681701
86.86712344067075 133.7134422704439 -7.966221499261515
88.18338107634304 133.6281149616757 -8.083665108998186
89.49327687346562 133.5034842591839 -7.891251408311431
90.69657618068673 133.5367194297847 -8.055408087693001
81.86825752542376 66.38622632694955 -6.527873732176755
82.96646041232047 66.20557948502656 -6.484038254575509
80.82881612640811 66.51206068326178 -6.577341615069637
84.19567799688586 66.05893199832887 -6.641206396010035
85.54008291397673 65.90935039324778 -6.67966515531289
86.84279102927592 65.90402909927103 -6.725308652245968
88.18346557596546 65.90440069266172 -6.641488492035752
89.49394153621664 65.86157553625175 -6.650121274796644
90.74542797680668 66.29142581105526 -6.552285770499005
91.74245605456173 66.39914519647422 -6.644253753615076
92.53020601875538 66.7557323940828 -6.5300042949173
73.75263084562994 67.9146447606591 -6.610512445230196
74.70104249240057 67.27476571506133 -6.615404711746645
72.65731766871799 67.84905436739066 -6.59535422950135
75.91201777632324 67.20875603992187 -6.642524605238462
77.27869284369967 67.11300523268829 -6.638905573585132
78.52684674605224 66.94319761945792 -6.71465076001624
79.77436110237956 66.79106120964279 -6.72993678504735
93.37330801764551 67.33421561417349 -6.607386836691358
94.24889261117396 67.95881511072675 -6.607954927659846
95.06769695677525 68.54263362316671 -6.816845637053842
96.09459816269141 68.83459417615921 -6.662749477767782
70.59092120216955 69.07589682480027 -6.656959815428698
71.71270300856619 68.38140904417784 -6.649836673231576
70.13303760870549 69.38953764421733 -6.534342063843597
68.85667018632059 69.60763448972438 -6.652404914952093
67.85652971530637 70.1421912364039 -6.670069895562003
96.24480182359238 69.70322254090645 -6.888875710141799
97.653892049139 70.07403389879488 -6.557932117817526
98.53488519879065 70.39209508521957 -6.707350476534245
67.46900819803739 70.82111442204841 -6.79115073980645
66.10027538687928 70.92712594691272 -6.715280746642475
65.06496399609462 71.71359845968655 -6.666171185160558
99.4173014519926 70.92010257684215 -6.677657480818677
100.4201627780215 71.67928402879497 -6.762068439298506
64.34415449600873 71.90564446465534 -6.675233078168243
63.43360735031482 72.40072776222344 -6.687419335492327
62.83076810249162 73.2858019988025 -6.670183766508311
101.3070633523022 71.84160944616335 -6.68357363937906
102.0807221257468 72.3767692959878 -6.500831933202477
61.86414961724876 73.70184059733516 -6.599170170135075
102.9208173427788 72.72351679415208 -6.733211080352657
103.8498898834626 73.46631730714358 -6.665583146109332
104.8122786418903 73.73273220607528 -6.689187681296372
105.6656429255097 74.40858942347896 -6.640194356786765
61.16951690224424 74.16012314762341 -6.687770888688365
60.65664038476139 74.89902895682911 -6.739499564039546
59.66946399104716 75.41805644997916 -6.613538174852295
59.58665126892146 76.56812399873081 -6.806766793122742
106.330658939009 74.8009790832642 -6.63668880934217
107.0833410293531 75.47663819057006 -6.676909642490896
107.8098648928929 76.05912155878889 -6.662162281993698
108.2490042909829 77.01543755969061 -6.592648839627012
109.000088639095 77.52632239042258 -6.714718679892067
58.80586077485056 77.15280341128012 -6.691068794556808
58.23176583133932 78.07165620203645 -6.633520019230609
58.15149963602769 78.83193886615327 -6.627364716289799
109.5534087279838 78.21125806168382 -6.658962570264954
110.2912109532533 78.93615919842206 -6.640136722546933
57.44909019324155 79.81707228964444 -6.598036309894207
57.02193848394047 80.83054488681185 -6.701619577028598
76.16372835823732 79.37783885078113 -6.601783710507697
74.9396534116879 79.65549865564701 -6.695857146375189
77.41394160021018 79.32631161641007 -6.680946412661477
74.14095036653696 80.26054405192234 -6.693168050113922
78.73372817193105 78.97997636671589 -6.528614221765147
80.06057747393236 78.8682278866621 -6.593125305290761
81.36988646034757 79.12464088588544 -6.664528371671564
82.67858625809671 78.89480306398787 -6.399597926371664
84.0192497742125 79.06385297873146 -6.578101074986823
85.44451068497506 79.18891917398932 -6.660249672329556
86.82624608302095 78.99340809380587 -6.560238113171995
88.25372115729974 78.80220801872632 -6.468546009784552
89.47954896676026 79.10733518770735 -6.602784601628048
90.5320929034026 79.11270327681143 -6.576097791638974
91.87351810440528 79.36032823265802 -6.649219322591819
92.79708747741657 79.95155535346829 -6.7338266573805
110.5651700767253 80.02696797146504 -6.654702692394515
111.2206368128436 80.71032466106924 -6.619487721927958
56.41918037533782 81.57864967576577 -6.66765338268233
73.21636812727513 80.64122330452778 -6.673470903292792
72.35262008540008 81.20245269564001 -6.644163050520461
71.46646211493673 81.38010956271711 -6.643955684507384
93.66939327726159 80.57304213792999 -6.68784840517767
94.84399240510267 80.69175271664201 -6.622012598252184
95.9187518728038 80.86323438178204 -6.661250846641463
96.78166795555271 81.39569207740456 -6.67967830876266
111.5948656918852 81.77380792625848 -6.470187028072727
56.12893154565184 82.64194488209053 -6.625195314749357
55.79994671312959 83.90955766114489 -6.668266263153157
70.60589724727876 82.12065825653866 -6.685334055758617
69.71538981229952 82.63722215545747 -6.799058132170643
69.08402151079737 83.37298961136686 -6.668370893647277
97.67593986619781 81.9065733888277 -6.562232416922101
98.68959760186611 82.29362097408038 -6.813251710952164
99.57080445734408 82.88383551845517 -6.661951976873142
112.4408492938 82.33951306758047 -6.592636027256033
112.5284730353822 83.37322649236728 -6.367460691324904
55.39909234915752 84.71673209493494 -6.713856731544118
68.25369980919361 84.13092679339084 -6.666026211516996
67.94843361665019 85.17317788578769 -6.727875142681383
100.4660832430565 83.34511296786781 -6.681356540025323
101.4445058323593 83.67841741268394 -6.665084700995513
102.1971652281437 84.25965935979855 -6.628046612934388
67.43162728747822 86.06864547130144 -6.630965758821786
103.1112739229872 84.80213313327079 -6.745613107496478
104.0159844449879 85.06864986217833 -6.673924882333863
104.4923266752499 86.24226044558613 -6.672273335648231
113.175910074042 84.13344040491182 -6.664584753449936
113.5989914201857 85.17616403396492 -6.674720815796661
114.1391206017537 86.14688968182531 -6.629269997775756
55.00445911860941 85.47213410295458 -6.598957804624431
54.5031320665336 86.56601781440794 -6.63707763660263
54.1013271099113 87.59234634620607 -6.614991818261567
67.10991422668437 87.11906536392533 -6.676955550100812
66.69133788301411 88.26061303939341 -6.718448834170403
105.0720562142341 87.04384953913461 -6.699053452306737
105.5724663805646 87.90351946329446 -6.699309106936114
114.5974626099295 87.00724316044567 -6.719356361606479
54.13540991954945 88.7875530125572 -6.598938925797222
66.44004712728932 89.25186185165843 -6.688298542933097
106.2447469510277 88.5715524574825 -6.547349261641512
115.2695298596164 87.81672042276378 -6.689095807875079
115.8186407927493 88.49079225639973 -6.651888259072988
65.98505858520234 89.79763769721535 -6.618088484313597
106.9265838307105 89.44982849655545 -6.672795167602969
107.3652999572834 90.43060824632795 -6.593152723164229
116.1060949036953 89.45482084366705 -6.701273807089677
116.6883593945453 90.22802463367367 -6.643333413796048
53.84141654672373 89.70355437996592 -6.527928301327252
53.4489254721928 90.92121161431311 -6.613357182793124
53.36051717955092 92.25706134664921 -6.513585105638028
65.81219552502246 91.17515682771176 -6.654305693297676
65.09003769863047 92.37786456041285 -6.669347277055641
107.8069862930879 91.33172238080186 -6.663934961330151
117.3681726248087 91.12760456961654 -6.667842488489375
53.10988073234922 93.35333918834951 -6.849776763815417
64.95025264554907 93.31049549367519 -6.633645891894249
107.9869188201053 92.50907464971868 -6.773124204438835
108.9814464138063 93.72839460252628 -6.663222664921935
117.7342148955973 91.9565328500998 -6.535646647073346
117.9807122288394 92.77841408140313 -6.513818605191795
52.69599593808643 94.28577693662358 -6.856033407409488
64.65720875609416 94.24009085153409 -6.635083960062182
108.9781414184642 95.06807692907769 -6.576461962544513
52.58343232149481 95.37916042338517 -6.493333074566352
64.34380184297488 95.43236594607478 -6.688892569299758
64.12614096827426 96.56149113527547 -6.673060490710533
108.4469529244402 96.43826147784284 -6.39759262010082
118.1723880554467 93.70360847515818 -6.499565727742766
118.101316590099 94.56658048020996 -6.619950057383801
117.7454584927946 95.37565191398073 -6.460601190196734
51.89837879146324 96.30891297970678 -6.702663862877079
51.81534009708179 97.15171960184799 -6.567414569897763
64.06433847569436 97.77470379482224 -6.6006594312241
108.3823122184923 97.67456060118191 -6.536422478023348
117.4094103067642 96.32668882519707 -6.745980565665844
116.9186806729995 97.37258000283762 -6.713421870298313
51.37339548413613 98.03508862283215 -7.50187374814924
51.4287095953007 97.96288814270042 -6.532286431257953
51.50165908726834 98.72563781290891 -7.481498759162839
63.86295693788694 99.14483503540853 -6.336346632998939
108.1912809147886 99.11605423797715 -6.632207429497714
116.7228719473584 98.27046450295306 -6.661787475598157
64.01806158277007 100.4043710329595 -6.626392192649285
108.2870292753225 100.5014933146232 -6.531705362553611
116.1771793434135 99.24973217731095 -6.67060193862006
115.8083998742599 100.2093250116056 -6.721601251876027
51.46734083193126 99.7113734955951 -6.551864621137717
51.4859210414799 98.75301258866614 -6.561173588604866
52.4102497199075 100.4505225060942 -6.783006508831402
52.40185465148473 101.4870194954917 -6.689202068370994
63.84327835324451 101.7946197483066 -6.481177084575064
108.8597691666287 101.6236301741078 -6.613525505508898
115.3861123578158 101.1693878152214 -6.669526581392558
52.88555172301273 102.5803338652752 -6.733413178225731
63.92373234444892 103.1412676321262 -6.554371617755638
108.5456329513658 103.2220260393718 -6.417213984361466
114.9100526776309 102.0851797271224 -6.609851436133985
114.7823043833893 103.3635152066755 -6.734302484346284
53.54848336848851 103.6220881950849 -6.698332415397772
53.96460023114581 104.4713959086867 -6.650702691665138
63.90134957581135 104.3955927325451 -6.494371266818506
108.4559200293915 104.4942872989788 -6.524027167861325
114.3543295038509 104.7327041234085 -6.443628688044504
53.98636543748147 106.013962760286 -6.657212585053875
64.22793118605118 105.8106447668137 -6.679890973790203
108.562236540673 105.8778220683423 -6.554505643661029
114.4876494014962 105.964141693409 -6.691502299798975
54.01845241957613 106.9570877889587 -6.607435177889021
64.5973039799641 106.9618834997993 -6.682667873106857
108.2333417775506 107.174420539738 -6.613246105707017
114.5278469101734 107.3408195596325 -6.607562104045861
54.21146567073031 107.9212599880873 -6.645851108414496
64.86689291978148 108.0512179444934 -6.711834391532831
107.718863324256 108.3141084697976 -6.661115377867816
114.4757164181254 108.8412393104258 -6.634542527688986
54.69457424188062 108.9728962998673 -6.622133562767368
54.87798893632186 110.1410683459698 -6.572265635309786
65.10289541032918 109.2976673469673 -6.684899868621317
107.3585862572436 109.3382496372752 -6.692987668488149
114.2996424535336 110.1082450906213 -6.635067839368518
55.58449994457418 110.9738470894902 -6.416388693657508
65.58799367847732 110.0413871839956 -6.650000597615132
66.17000553206032 110.824008543279 -6.718626975046538
107.2396740275368 110.3111060470169 -6.755078709275175
114.2370690418146 111.1631376955122 -6.74762647035916
55.65783946641785 112.1589347381871 -6.752854030391743
66.65278612507879 111.713759041636 -6.670798556558665
106.695676897467 111.310773067143 -6.787580104157603
106.3152207538436 112.3684607576826 -6.766347323052845
114.0348221484408 112.2829235386091 -6.638379999738214
56.05034388451649 112.9761997964031 -6.801783102445196
56.47939716689832 113.9385232688024 -6.612342982031018
67.01019177231254 112.7418951972799 -6.609488268974568
67.08818447960198 113.6407577295477 -6.690106460894395
105.4530489104352 113.2760691134896 -6.680347991798433
113.9347652761532 113.3150253376251 -6.717135442704105
56.78033806785848 114.8993192746844 -6.782822140315321
67.94631788381423 114.663330904506 -6.661649850018613
104.9183255725836 113.7557665734008 -6.64617483572327
104.7175998979488 114.8246074034959 -6.8234633963266
113.39527786315 114.291941645454 -6.700114705900177
112.7083706712625 115.0003700354877 -6.772703330089328
57.22703318700621 115.703447150934 -6.809275983987759
57.99968021305605 116.615606601705 -6.570724744320196
68.6367020055572 115.3294182380554 -6.5184420438654
69.08571806246957 115.8494900591864 -6.575653625395372
104.0600847991319 115.6239375531105 -6.571345258556896
103.2759760233083 116.2280501681879 -6.636044902448033
112.1406932722246 115.6279505356514 -6.664636567798109
58.1757953740714 117.5215489856145 -6.735067347366456
69.42366818623373 116.8080742075822 -6.857287956358314
70.45919884924625 117.4904516548802 -6.678524511827478
102.9027301018127 117.0391417534034 -6.683010359981456
111.7832670962533 116.5927295713834 -6.628025263970856
111.0848392233518 117.2216489285521 -6.709935422305863
58.91026877871984 118.4639425758752 -6.772143620689188
59.09930692435212 119.2831147122538 -6.574186588442643
71.0028475182979 118.2843850546806 -6.669697088537912
102.2686894428437 117.994964688841 -6.543659960366906
101.6586479305982 118.6425022406841 -6.502340045031131
110.3411434910695 117.7949679061614 -6.712004942636227
109.6833562084322 118.4437709794976 -6.784041524968424
59.655239074679 120.1449519174887 -6.670723277933964
71.73694359780907 118.9963545975247 -6.673096674189043
72.05154127894181 119.8860295676936 -6.738147240729721
100.6688503373899 119.1569245751709 -6.695438522271703
99.9225520637244 119.7892548438453 -6.712554064384421
108.7925603332032 119.0247908723666 -6.675602830287804
108.1508063759166 119.7994172651185 -6.778375640615126
107.3539849635414 120.7806703096895 -6.675183280839754
60.64249387660757 120.7933046333295 -6.559558034322252
61.00705538324209 121.5620185500566 -6.750592970576745
73.24577156638966 120.1852108095861 -6.740620450511082
74.19660157578484 120.6812724571869 -6.632742044060278
99.31143523955228 120.511330253957 -6.702951069653682
98.46180588146871 121.0103757030544 -6.681353755243414
106.9184538308633 121.441410909379 -6.770411073710171
61.42982091548099 122.5503434716485 -6.818957814847769
62.12855012043833 122.8857710065058 -6.773167496056429
75.00898102901999 121.2724384668772 -6.624516165759608
76.05869337851597 121.5458331988842 -6.692815676299368
76.93304614259486 122.1609784581716 -6.702049846436903
97.59469797249058 121.5185668094787 -6.713391607644829
96.70521208768346 122.0139748313186 -6.651632926785055
106.3788473547282 122.1447676442344 -6.711612874017664
105.7420898717048 122.9088722196763 -6.702482026972024
62.93975557302878 123.7708656102713 -6.783891918903675
63.78611116916975 124.2926012060714 -6.625551382571492
77.7103365282466 122.6593977261122 -6.813550545655808
78.73609148627227 123.140650821643 -6.801997312026994
79.74651890990717 123.4317135619061 -6.663986002513324
96.02358731688304 122.7845531062255 -6.593649216096097
94.86147214363251 123.0505964573453 -6.683843397344214
93.93082078879178 123.5696345396896 -6.66777804295861
105.0921186078037 123.5552279245162 -6.739917686586647
104.1377903470208 123.9599385993865 -6.738846751657462
64.25702534207764 125.2497770319351 -6.785005047999374
64.75842009681708 125.8561710054908 -6.817891872516869
80.72512357078213 123.8605250985778 -6.692125657592602
81.73623414361077 124.3931174861084 -6.670610880567056
82.89824142287617 124.3446827236004 -6.680880077851903
92.96967336422507 123.7829371159207 -6.709380729973364
91.99887397937258 124.2182887380816 -6.630565667586236
90.78664103484573 124.3660318008778 -6.691518066187964
103.3878077607269 124.8118435878384 -6.662750959360691
102.7307769704446 125.1834618439902 -6.742582519788201
65.59018595199808 126.5304747805581 -6.918171136503299
66.26025792543575 126.9034855706699 -6.727669313036483
84.23658835834195 124.8996520144219 -6.67078976539653
85.59819278204802 125.0037259403015 -6.602526722116417
86.83888119382449 124.6027662414212 -6.568212029855959
88.20718957859421 124.5665987732221 -6.65330723842845
89.6807783629161 124.8298610484489 -6.528728038572774
102.1573104929582 126.0220371351599 -6.689944120287265
101.5479056882223 126.7282177248607 -6.632759910385877
67.11886180779921 127.7838869462551 -6.777710876457116
67.49511284620534 128.6669720309359 -6.837695856354969
100.5954344956359 127.2825508073479 -6.622717067783397
99.83732110880794 127.8463884488607 -6.720931821250835
98.9437994234236 128.1653213829327 -6.677844780956274
68.54981265143277 129.2918452779377 -6.689297943351413
69.08932262935261 129.8330510201811 -6.758992895405464
98.27828021026008 129.1318211864922 -6.715616642915579
97.56406813897847 129.6968238108757 -6.6929250040279
69.78672726066306 130.2812280494682 -6.706144547465845
70.79241880612963 130.7770512497874 -6.751145866449332
96.30489805397126 129.9135479520784 -6.683716671478085
95.97364879110185 130.7488048790564 -6.526924222895519
71.57519001071638 131.4648548274845 -6.773479004262128
72.73984467930384 131.7584717110313 -6.751412893124666
73.31169820936388 132.318038592143 -6.608225789148049
95.32657991155432 131.4055003444519 -6.609243381157959
94.49796466124027 131.9501679102393 -6.801381259803848
74.42503729951764 132.6684535949694 -6.610896879020264
75.10850806512742 133.2448801884248 -6.772636083157709
76.09644695461361 133.2546166670695 -6.444771995152895
93.60849378834999 132.421793661586 -6.560239347820009
92.74774585902483 132.9214568810983 -6.586387958296275
91.83169672312316 133.2317685453609 -6.633542107207759
78.81946736080667 133.3762181404992 -7.861036518254683
80.05236144703787 133.4681871258722 -7.831924234718486
77.26304258804274 133.5988236013968 -6.641196212899617
78.63083534998511 133.6152070779225 -6.764227695150714
79.96338784079425 133.4331225220816 -6.764553482990967
81.34919001424012 133.929049330265 -6.679942718734008
82.67968573192174 133.7725488738444 -6.736721336097377
84.08889224045473 133.6781253196647 -6.65765837953113
85.53613459724582 133.7552314892702 -6.704945586130977
86.88422322795743 133.7394779715976 -6.688992828660327
88.20144629141978 133.7992773073894 -6.687881104862877
89.55724250733491 133.5793225443705 -6.739950564813447
90.7583572864677 133.7284089864417 -6.70950859440889
81.40344893733567 66.69217769194942 -5.352090490397114
82.72503311648566 66.21261256983067 -5.393187418110651
80.54325310558713 66.39625401018637 -5.487166751328836
79.61145569564015 66.58567408388586 -5.511571936142233
84.01158113226941 66.22406413394891 -5.437624177149621
78.64367422549998 67.22753062039494 -5.185104074839717
85.45794472675304 66.02784871316329 -5.36074438900443
86.93643696557302 66.31852996457661 -5.438573011368314
88.22245722437533 65.99083634777043 -5.335172136413823
89.58856286048058 66.19087093990055 -5.38736144666154
90.66954345429608 66.1144948858025 -5.332323749394702
91.66998177076637 66.54937287884835 -5.44643465539094
92.60124336649218 66.74208815515998 -5.308097910720429
93.42399356399076 67.19748297105048 -5.394363239897408
94.18817409365252 68.00222389110351 -5.385630959566099
73.59083352554818 67.540041360671 -5.347492780612633
74.71819608924538 67.31318415519914 -5.325655245443897
72.73510137662976 68.10032819681796 -5.380587862339169
71.65106469852989 68.71981523885957 -5.343416984716232
75.9277622760262 67.34932683497544 -5.375879428879045
70.69725805058167 68.84485640413533 -5.429462063312964
77.32009527681929 67.14001631431115 -5.364884365173555
95.07681702962881 68.45017970406377 -5.497400728316835
96.05729542766851 69.11416050013945 -5.335524674736802
69.88704259331081 69.31552694100264 -5.346591388874821
68.81956044656437 69.7269627563993 -5.315188112431402
67.87482627661336 70.4241377437713 -5.238974912253093
96.77005807087295 69.37797051081341 -5.343338830349921
97.69500608673455 69.89034396987333 -5.404115462682757
98.44337478871037 70.7083149431314 -5.384929813310779
66.95320838982735 71.11751272469216 -5.451776032722963
66.05464789979754 70.94477057795268 -5.517220321464581
65.05018888720919 71.65573261305147 -5.187438301168381
99.45816325917016 70.86006734508017 -5.465102341256902
100.4021812433965 71.33125915799693 -5.402939092432218
