1234
178.482 181.294 -13.7047
180.135 180.982 -13.426
180.103 179.906 -12.5352
177.851 180.56 -12.3862
177.5 182.5 -15.04
179.896 182.093 -13.6962
177.5 182.5 -12.54
182.008 180.852 -13.2038
182.32 179.819 -12.5056
181.94 181.862 -13.2065
179.895 183.089 -12.6621
175.219 182.237 -12.5308
175.289 183.362 -13.677
174.948 185.078 -13.571
176.626 184.167 -13.8068
177.426 184.925 -12.5802
182.194 182.858 -12.3823
177.918 178.969 -11.1423
176.193 179.262 -10.8528
175.413 180.502 -11.5561
180.131 178.573 -11.316
182.487 178.472 -11.4676
179.877 184.873 -11.6746
182.15 184.178 -11.2877
183.405 180.91 -12.9549
184.56 180.29 -12.2288
183.393 181.666 -12.8532
184.569 182.217 -11.8328
184.895 178.567 -11.4278
183.879 183.57 -11.0216
187.343 180.093 -11.6404
187.44 178.537 -11.2378
187.346 181.644 -11.1536
185.682 183.124 -10.4972
187.61 182.872 -9.77384
184.764 184.155 -9.60669
173.602 183.778 -13.1502
172.824 182.778 -12.0122
172.83 185.354 -13.329
171.91 184.421 -12.5912
170.216 185.279 -12.0248
171.241 186.093 -13.0546
170.823 187.78 -13.3049
172.651 187.614 -13.4347
174.239 186.751 -13.3496
175.84 185.862 -13.0216
175.162 187.601 -12.5963
173.605 181.143 -11.1762
172.758 180.39 -9.67693
171.881 181.901 -10.5876
170.221 182.723 -9.86473
171.033 183.538 -11.3916
177.235 187.165 -11.4826
179.015 186.337 -11.0056
169.455 187.485 -12.6101
170.106 190.056 -13.4174
171.85 189.857 -13.316
169.087 189.21 -12.9662
173.654 188.442 -13.0159
173.21 190.151 -12.6236
169.378 184.364 -10.5963
167.871 185.243 -9.68812
168.586 186.059 -11.2044
167.878 187.81 -11.6121
167.822 190.158 -12.4429
174.867 189.783 -11.5497
176.353 188.808 -10.968
168.783 190.965 -13.224
168.602 192.752 -13.2934
170.161 192.554 -13.3767
171.497 191.647 -13.1016
172.512 192.541 -12.1184
173.965 191.615 -11.2208
167.326 192.609 -12.5663
168.374 194.92 -13.2883
169.636 194.923 -13.306
167.144 194.968 -12.6306
171.122 193.418 -12.8624
170.754 195.175 -12.6829
166.698 188.641 -10.8886
166.385 190.357 -11.1815
166.012 192.626 -11.3515
165.871 195.029 -11.543
171.948 195.037 -11.6027
173.349 193.407 -10.655
174.487 192.512 -9.74535
173.043 195.197 -9.927960000000001
168.31 196.948 -13.1909
169.36 196.952 -13.1444
167.241 197.273 -12.5831
170.348 197.282 -12.4298
165.899 197.442 -11.5987
171.45 197.221 -11.3186
168.408 198.395 -13.0031
169.18 198.404 -12.9054
167.815 199.581 -12.3765
169.778 199.618 -12.0446
166.067 199.89 -11.5359
171.015 198.963 -11.1432
166.103 202.481 -11.4295
167.772 202.492 -12.0958
169.497 202.5 -11.8319
170.733 200.709 -10.9456
171.684 199.948 -9.825150000000001
170.663 202.501 -10.8384
168.425 206.58 -12.9875
169.173 206.594 -12.9154
169.764 205.392 -12.0334
167.843 205.396 -12.3257
168.353 207.984 -13.1757
169.329 208.055 -13.2096
167.356 207.653 -12.4399
170.25 207.795 -12.4109
168.474 209.864 -13.3411
169.544 210.103 -13.6675
167.443 209.87 -12.3776
170.409 210.1 -12.6258
166.119 205.057 -11.4066
166.054 207.456 -11.2924
170.728 204.295 -10.9415
170.993 206.055 -11.1318
171.676 205.059 -9.82061
171.387 207.832 -11.2935
166.28 209.678 -11.1886
171.778 210.105 -11.5517
168.768 211.549 -13.5544
170 212.5 -15.04
167.978 212.255 -12.0141
170 212.5 -12.54
166.669 211.416 -11.0332
172.197 212.725 -12.0833
171.374 213.466 -13.7112
170.713 214.776 -13.9033
171.864 215.222 -13.8566
169.87 214.838 -12.655
166.041 212.209 -9.60812
166.994 213.207 -10.5602
168.414 214.846 -11.5119
167.19 215.076 -9.86002
172.83 215.183 -12.5493
171.213 216.493 -13.8425
172.5 217.5 -15.04
170.543 217.133 -12.4266
172.5 217.5 -12.54
173.218 211.697 -10.6176
172.981 209.852 -9.903
173.794 213.518 -11.1664
174.391 212.542 -9.7173
174.658 215.369 -11.475
168.928 217.082 -11.1958
174.834 217.671 -12.5144
174.135 218.368 -13.821
173.385 219.616 -13.7129
175.044 219.956 -13.7067
172.294 219.721 -12.5165
169.27 218.797 -10.8547
170.531 219.557 -11.5486
175.741 219.26 -12.9931
173.857 221.142 -13.2343
175.383 221.615 -13.7117
172.983 222.015 -11.9401
176.623 220.875 -13.8133
177.292 220.201 -12.4855
177.5 222.5 -15.04
176.985 217.992 -11.3619
176.154 216.291 -10.8895
171.233 221.317 -11.1406
175.27 222.708 -12.5134
177.5 222.5 -12.54
170.47 222.146 -9.64157
172.017 222.984 -10.4868
173.668 223.774 -11.1375
175.397 224.482 -11.5335
172.841 224.548 -9.640969999999999
177.685 224.365 -12.3411
178.662 223.019 -13.6421
179.523 222.714 -12.313
178.021 223.606 -13.6491
178.84 223.796 -13.3283
179.436 220.537 -11.3081
178.574 218.911 -10.8248
179.721 224.614 -12.3657
182.067 222.958 -11.2219
181.156 221.4 -10.791
182.366 225.003 -11.834
176.154 225.845 -10.8429
177.843 226.286 -11.1554
180.092 226.972 -11.4088
182.646 227.148 -11.7937
186.372 228.29 -12.8333
187.5 228.28 -12.9103
187.456 227.35 -12.2205
185.342 227.533 -12.1785
186.39 229.028 -12.7287
187.526 229.124 -12.8969
185.404 229.548 -11.7812
188.651 228.372 -12.7611
189.708 227.783 -11.8903
188.652 229.073 -12.83
187.594 229.966 -12.1812
189.695 229.64 -12.1612
184.962 225.283 -11.4057
187.262 225.907 -11.2057
182.871 228.906 -11.1703
189.021 226.427 -11.0505
182.552 230.193 -9.75878
184.375 230.542 -10.4858
186.131 230.926 -10.9831
187.828 231.282 -11.1628
185.312 231.669 -9.618779999999999
190.025 231.33 -11.3007
190.83 226.807 -10.7928
190.038 225.753 -9.71354
192.474 228.238 -11.48
192.733 227.005 -10.5312
192.419 229.835 -11.7547
192.49 231.407 -11.2351
177.683 177.907 -9.590730000000001
175.438 178.66 -9.544230000000001
174.476 179.755 -10.338
180.107 177.317 -9.67131
175.324 177.806 -7.68232
173.529 178.596 -7.42275
173.835 179.11 -8.92665
177.441 177.071 -7.73766
179.245 176.786 -8.264250000000001
182.59 177.26 -10.147
182.813 176.384 -8.80559
181.028 176.528 -8.658720000000001
180.261 176.257 -7.30701
185.014 177.249 -10.2749
185.087 176.307 -8.88134
187.493 177.232 -10.257
187.519 176.274 -8.89629
189.962 178.5 -11.0766
189.988 177.219 -10.2049
189.893 179.966 -11.3073
189.726 181.268 -10.8064
189.997 176.264 -8.885160000000001
192.479 178.492 -10.9398
192.481 177.216 -10.1432
192.461 180.02 -11.0219
191.573 181.032 -10.6187
192.474 176.269 -8.860749999999999
194.979 178.45 -10.8641
194.953 177.223 -10.0678
194.992 179.797 -10.972
193.318 180.838 -10.4509
194.998 180.779 -10.4019
192.484 181.689 -9.584199999999999
194.905 176.302 -8.81758
195.001 181.641 -9.32471
197.461 178.533 -10.7835
197.396 177.28 -9.90582
197.515 180.028 -10.9372
196.678 180.838 -10.4227
197.184 176.391 -8.730510000000001
197.522 181.679 -9.55293
199.911 178.614 -10.6702
199.905 177.33 -9.47739
200.025 179.99 -11.0281
198.416 181.02 -10.5421
200.241 181.229 -10.6155
198.975 176.536 -8.586639999999999
202.184 178.859 -10.5818
202.359 177.861 -9.40278
202.415 180.127 -10.9925
202.521 181.511 -10.6712
200.764 176.788 -8.2003
199.743 176.258 -7.284
202.582 177.05 -7.69394
203.935 179.131 -10.4371
204.644 178.525 -9.38138
204.862 180.25 -10.7569
204.916 181.806 -10.7433
204.746 177.726 -7.64946
205.688 179.467 -10.0059
207.217 180.94 -10.521
207.466 179.805 -9.4102
207.421 182.459 -10.7144
206.29 178.836 -8.82207
206.633 178.394 -7.42531
172.073 179.689 -7.66406
170.426 180.883 -7.42674
171.065 181.251 -9.0258
186.578 183.749 -8.98502
189.999 182.263 -9.54157
188.353 183.362 -8.313929999999999
190.127 183.04 -7.67895
187.281 184.025 -7.43556
192.49 182.477 -7.57409
195.001 182.283 -7.50032
200.031 182.222 -9.43914
202.502 182.763 -9.51567
197.516 182.465 -7.56099
199.895 183 -7.63641
201.707 183.269 -8.20017
204.806 182.961 -9.99804
203.472 183.574 -8.673450000000001
205.204 183.856 -8.949020000000001
202.768 183.838 -7.31448
206.582 183.249 -10.2018
207.488 184.239 -9.408799999999999
209.015 181.415 -10.3781
209.804 180.816 -9.378970000000001
209.951 182.636 -10.6334
208.367 183.65 -10.3979
210.192 184.151 -10.4696
208.192 179.227 -7.72482
210.087 180.029 -7.64667
210.785 181.858 -10.0055
212.279 183.412 -10.5047
212.556 182.245 -9.523709999999999
212.518 184.991 -10.6219
211.55 181.24 -8.851599999999999
212.202 180.847 -7.39035
169.597 182.097 -8.250870000000001
168.382 182.925 -7.42767
168.746 183.561 -9.029
180.758 185.694 -10.376
182.476 185.241 -9.641590000000001
179.851 186.863 -9.587490000000001
181.374 186.287 -8.92751
183.189 185.662 -7.70366
185.043 184.795 -7.56795
181.696 186.601 -7.42223
209.94 185.259 -9.377940000000001
211.691 185.729 -9.949960000000001
205.091 184.346 -7.34166
207.356 184.925 -7.50192
209.268 185.703 -7.63247
211.099 186.293 -8.794029999999999
212.641 186.871 -9.353579999999999
210.792 186.608 -7.3772
214.035 183.926 -10.3945
214.79 183.243 -9.403029999999999
214.974 185.282 -10.6703
213.464 186.388 -10.3987
215.29 187.237 -10.5964
213.27 181.721 -8.21771
214.953 182.249 -7.59749
215.765 184.393 -10.0291
217.207 186.03 -10.5991
217.456 184.81 -9.533770000000001
217.458 187.691 -10.8854
216.484 183.712 -8.862159999999999
217.049 183.302 -7.38773
167.209 186.938 -10.3644
166.137 187.92 -9.55908
167.185 184.569 -7.66707
166.093 186.026 -7.42544
166.6 186.326 -8.93403
178.132 188.034 -9.80491
176.894 189.406 -9.6051
178.48 188.625 -8.314450000000001
179.835 187.77 -7.53029
177.403 190.017 -7.57259
214.396 188.019 -9.51407
216.227 188.752 -10.4045
217.792 189.607 -10.6272
215.685 189.298 -9.36154
212.676 187.748 -7.4743
214.061 188.571 -8.21306
215.212 189.847 -7.50476
218.787 186.57 -10.4395
219.474 185.965 -9.36135
219.458 187.957 -10.7343
219.63 189.883 -10.8115
218.098 184.298 -8.17305
219.576 185.026 -7.45167
220.23 187.232 -9.97475
220.79 188.645 -10.3734
221.459 188.01 -9.314959999999999
221.105 190.098 -10.4054
220.867 186.669 -8.77036
221.311 186.356 -7.34615
165.381 190.166 -9.60605
164.795 192.605 -9.685320000000001
165.3 187.82 -7.68653
164.565 189.937 -7.74166
164.279 191.743 -8.26904
175.612 190.705 -9.870039999999999
176.17 191.127 -8.387309999999999
175.454 192.666 -7.70662
217.043 190.415 -9.52055
218.628 191.094 -10.3526
219.936 191.745 -10.4371
218.178 191.678 -9.32762
216.619 190.898 -8.21813
217.722 192.289 -7.47418
221.239 191.768 -10.2559
222.32 190.012 -9.21405
222.324 192.007 -9.13284
222.457 187.852 -7.54572
222.886 189.314 -8.061389999999999
223.132 190.626 -8.37283
223.421 190.178 -7.20192
223.114 191.659 -8.346869999999999
164.722 195.1 -10.1773
163.754 192.76 -7.30927
164.019 193.527 -8.664820000000001
163.873 195.314 -8.81493
173.989 194.174 -9.07244
174.371 194.801 -7.47502
219.417 192.607 -9.415649999999999
220.581 192.814 -10.1161
221.215 192.784 -10.0544
220.458 193.395 -9.13424
219.073 193.155 -8.13317
220.132 194.242 -7.29146
221.592 193.252 -9.060600000000001
222.713 192.891 -7.94021
223.352 192.186 -7.16268
222.036 194.16 -7.24182
164.7 197.521 -10.336
163.797 197.584 -8.89775
172.355 197.508 -9.73691
173.53 195.88 -8.37547
173.132 197.629 -7.72991
164.738 199.973 -10.3478
163.786 199.993 -8.914479999999999
172.501 199.982 -7.64012
164.768 202.457 -10.2824
163.817 202.41 -8.882389999999999
171.617 202.501 -9.52075
172.29 202.5 -7.56172
164.801 204.918 -10.1277
163.897 204.685 -8.7982
164.812 207.414 -9.65973
164.033 206.467 -8.65019
165.342 209.867 -9.59735
163.767 207.201 -7.29274
164.293 208.249 -8.235239999999999
164.587 210.051 -7.66264
172.329 207.514 -9.7242
172.498 205.02 -7.63864
173.123 207.378 -7.72598
173.506 209.138 -8.36622
165.329 212.338 -7.55439
173.942 210.855 -9.05627
174.342 210.214 -7.47025
166.331 214.035 -9.006500000000001
166.03 214.714 -7.4386
167.887 217.349 -9.621740000000001
166.698 215.796 -8.3377
167.094 217.508 -7.68649
175.449 214.348 -9.831469999999999
176.637 215.653 -9.538180000000001
175.357 212.36 -7.70254
175.957 213.882 -8.385
176.967 214.944 -7.60284
168.707 219.543 -9.51276
167.963 219.597 -7.53243
177.78 217.137 -9.59351
179.092 218.398 -9.47174
178.218 216.637 -7.7497
179.48 218.001 -7.62319
217.721 216.685 -10.1162
218.425 216.705 -10.0242
218.884 215.985 -8.96645
217.463 215.776 -9.0464
217.043 217.952 -10.5464
218.317 217.818 -10.2442
216.594 216.942 -9.835850000000001
219.139 217.714 -9.12251
215.202 217.386 -9.34193
215.277 218.649 -10.5579
214.986 220.409 -11.051
216.96 220.079 -10.7446
218.142 219.186 -10.3075
218.751 219.723 -9.261850000000001
218.951 214.767 -8.21419
218.237 214.706 -8.24657
218.201 214.153 -7.04998
217.035 214.932 -7.42775
215.754 215.818 -7.33923
216.119 216.226 -8.690530000000001
219.917 215.652 -7.51117
219.498 214.2 -6.96748
220.068 217.539 -7.34329
219.489 219.643 -7.4044
169.795 220.487 -10.3167
169.215 221.131 -8.903219999999999
168.84 221.456 -7.40884
180.323 219.733 -9.571859999999999
181.781 220.901 -9.485989999999999
180.797 219.29 -7.742
182.388 220.573 -7.5756
213.905 219.189 -10.3956
213.595 218.558 -9.294370000000001
213 220.642 -10.7209
212.308 219.822 -9.381159999999999
210.957 220.969 -9.32499
211.419 221.463 -10.4686
210.497 223.015 -10.7747
212.609 222.708 -11.2325
214.64 222.473 -11.2098
216.33 222.213 -10.6785
214.559 216.957 -7.62944
213.196 218.15 -7.55968
211.904 219.391 -7.69743
210.606 220.603 -7.58265
217.849 220.743 -9.976570000000001
217.512 222.385 -9.412559999999999
218.477 221.265 -8.77533
218.804 221.54 -7.3617
169.858 222.791 -7.66726
171.314 223.687 -8.954029999999999
170.906 224.094 -7.44734
183.071 222.126 -9.71041
183.991 223.764 -10.8419
184.844 223.212 -9.52896
183.456 221.633 -8.289949999999999
184.812 222.343 -7.51943
209.734 222.251 -9.40301
208.32 223.381 -9.3428
208.834 223.867 -10.4901
207.818 225.365 -10.7893
210.117 225.047 -11.2403
212.337 224.82 -11.2871
214.441 224.556 -10.9374
209.338 221.836 -7.70723
207.982 222.988 -7.58727
215.83 223.81 -10.5184
216.393 224.465 -9.37359
217.981 222.997 -7.63945
217.048 224.584 -7.50641
174.48 225.256 -10.3125
175.391 226.438 -9.50573
172.192 225.154 -7.66798
173.831 225.844 -8.902760000000001
173.483 226.198 -7.41105
185.8 224.375 -10.2851
187.557 224.763 -9.632529999999999
186.396 223.737 -8.91098
186.704 223.416 -7.41896
206.853 224.586 -9.44918
204.767 225.64 -9.52941
205.847 226.173 -10.6181
204.949 227.589 -11.0239
207.516 227.262 -11.1603
209.842 226.981 -11.1953
212.056 226.837 -10.8217
206.509 224.06 -7.70778
204.702 224.905 -7.54942
213.764 226.083 -10.5757
215.225 225.286 -10.0562
214.537 226.577 -9.41281
215.765 225.829 -8.79978
215.99 226.105 -7.3693
177.588 227.578 -9.57386
179.304 227.984 -10.266
175.208 227.131 -7.53632
176.904 228.067 -7.67976
178.715 228.672 -8.8894
180.339 229.157 -9.522690000000001
178.38 229.016 -7.4039
181.057 228.433 -10.8223
188.24 224.29 -7.70771
190.187 225.019 -7.59012
192.585 226.024 -9.21167
192.563 225.458 -7.41335
203.993 226.714 -10.4213
202.185 226.964 -10.3381
202.387 228.165 -11.0871
202.383 229.732 -11.1991
204.921 229.593 -10.9179
207.416 228.989 -10.7766
209.566 228.522 -10.6595
202.396 225.417 -7.38826
202.345 225.985 -9.1273
211.117 228.156 -10.4649
212.916 227.696 -9.577209999999999
211.526 228.767 -9.360300000000001
213.253 228.224 -8.24071
214.507 227.475 -7.49478
212.088 229.229 -7.52885
180.324 230.081 -7.49614
181.88 230.728 -8.24907
183.545 231.265 -8.98456
182.95 231.681 -7.42482
195.002 228.408 -11.2658
195.062 227.129 -10.3543
194.975 229.929 -11.5546
194.977 231.442 -11.1383
195.035 226.163 -9.011659999999999
197.484 228.445 -11.1693
197.491 227.163 -10.2832
197.473 229.941 -11.4388
197.45 231.425 -11.0083
197.494 226.201 -8.95233
199.945 228.383 -11.1217
199.907 227.116 -10.2818
199.94 229.88 -11.3302
199.894 231.34 -10.8085
199.942 226.153 -8.980930000000001
202.191 231.092 -10.6708
203.983 230.815 -10.5143
205.765 230.528 -10.1229
207.562 230.295 -9.605650000000001
204.744 231.486 -9.42844
206.525 231.217 -8.888640000000001
209.7 229.57 -9.42703
208.261 230.822 -8.25459
209.944 230.346 -7.63982
207.158 231.625 -7.40395
187.69 232.516 -9.632239999999999
190.12 232.64 -10.0834
185.074 232.645 -7.6356
186.819 233.059 -8.21917
188.57 233.392 -8.63865
190.327 233.568 -8.781510000000001
187.827 233.67 -7.28634
192.531 232.712 -10.1922
192.573 233.66 -8.846439999999999
194.968 232.728 -10.1571
194.932 233.668 -8.836029999999999
197.398 232.698 -9.98535
197.191 233.598 -8.75323
199.911 232.66 -9.52102
198.979 233.459 -8.60371
202.391 232.135 -9.436780000000001
200.779 233.216 -8.21312
202.625 232.969 -7.69976
199.748 233.743 -7.28828
204.908 232.316 -7.6505
182.649 175.97 -7.23882
185.056 175.845 -7.24585
180.111 176.239 -5.53096
177.658 176.521 -5.46239
178.42 176.48 -6.81079
182.561 176.046 -5.5403
185.025 175.951 -5.54797
187.516 175.798 -7.25231
187.508 175.914 -5.55325
189.999 175.787 -7.25122
189.999 175.904 -5.55648
192.482 175.797 -7.24424
192.491 175.911 -5.55784
194.943 175.843 -7.23099
194.975 175.946 -5.55446
197.351 175.972 -7.22003
197.441 176.042 -5.54578
199.895 176.234 -5.53332
201.59 176.474 -6.79586
202.362 176.512 -5.46282
175.133 177.305 -6.04335
173.218 178.218 -5.45518
171.891 179.256 -6.14823
176.704 176.845 -6.35426
170.689 180.197 -5.50821
203.333 176.827 -6.34612
204.971 177.256 -6.04684
207.128 178.085 -5.49023
208.488 178.854 -6.36137
210.038 179.437 -6.03066
169.069 181.569 -5.44027
169.174 181.674 -6.73588
189.02 183.643 -6.81831
190.691 183.193 -6.1598
192.296 182.704 -5.5616
189.541 183.589 -5.4383
195 182.375 -5.58582
197.705 182.691 -5.55882
199.316 183.158 -6.14791
201.002 183.56 -6.77369
200.459 183.505 -5.43021
211.954 180.267 -5.41258
213.912 181.37 -6.77452
214.374 181.314 -5.3881
167.697 183.189 -5.50854
166.755 184.39 -6.1492
165.717 185.718 -5.45586
183.451 185.796 -6.21504
184.831 185.061 -5.56987
182.233 186.438 -5.58056
187.267 184.167 -5.54993
202.718 183.891 -5.53388
205.113 184.374 -5.55875
207.62 185.146 -5.56804
209.025 185.835 -6.19893
210.258 186.448 -5.57931
215.47 181.996 -6.11077
216.811 182.76 -5.50908
218.498 183.949 -6.74746
218.539 183.861 -5.4581
164.804 187.632 -6.04463
164.343 189.203 -6.35534
178.744 188.946 -6.8235
180.194 187.586 -5.55276
178.813 188.909 -5.46929
212.309 187.559 -5.56071
213.797 188.866 -6.79992
213.711 188.794 -5.48667
219.979 185.106 -5.5465
221.82 186.368 -5.56167
222.672 187.353 -6.12604
223.226 188.668 -6.72164
223.225 188.206 -5.43102
164.021 190.158 -5.46293
163.978 190.919 -6.81242
176.453 191.641 -6.86364
177.437 190.238 -5.52117
176.316 192.16 -5.42247
215.124 189.91 -5.55731
216.335 191.215 -6.79957
216.313 191.273 -5.47647
175.614 193.202 -6.14111
174.828 194.656 -5.49266
217.651 192.563 -5.51281
218.827 193.722 -6.7122
218.847 194.226 -5.36967
223.03 193.626 -6.60371
223.517 190.174 -5.50922
223.491 192.245 -5.49239
223.15 194.119 -5.35728
163.468 195.149 -7.24117
163.346 197.552 -7.24894
163.739 192.611 -5.53142
163.547 195.061 -5.54
163.456 197.523 -5.54677
173.835 196.516 -6.83415
173.825 197.005 -5.41667
219.737 194.824 -5.9397
220.728 195.166 -6.28523
221.627 195.142 -6.27441
220.439 195.391 -5.24622
222.515 194.759 -5.92399
221.933 195.37 -5.24466
163.317 199.997 -7.25362
163.431 199.997 -5.54978
173.293 198.181 -6.16569
172.743 199.79 -5.5618
163.352 202.443 -7.24473
163.458 202.469 -5.54723
172.388 202.5 -5.58716
163.478 204.837 -7.23404
163.554 204.907 -5.54017
172.743 205.211 -5.56169
163.757 207.282 -5.52611
173.291 206.822 -6.16468
164.002 208.975 -6.77234
164.066 209.529 -5.42708
173.826 208.49 -6.8321
173.821 208 -5.41635
164.444 210.648 -6.1494
165.054 212.209 -5.5443
165.884 214.718 -5.54236
174.814 210.368 -5.49215
175.574 211.852 -6.14051
176.273 213.395 -6.87241
176.282 212.974 -5.42493
166.419 216.462 -6.8195
166.482 216.997 -5.4349
219.502 213.2 -5.46043
217.985 213.548 -5.2911
216.786 214.526 -6.04416
220.405 214.2 -6.17253
220.487 213.557 -5.05128
220.661 215.344 -6.34627
215.483 215.541 -5.49743
220.689 216.652 -6.34445
166.964 218.098 -6.15773
167.684 219.589 -5.55003
177.514 215.239 -5.53947
178.514 216.527 -6.21753
179.66 217.802 -5.57457
214.264 216.734 -6.17476
212.955 217.942 -5.564
220.372 218.124 -6.00949
220.753 217.127 -5.2557
219.796 219.61 -5.50721
168.848 221.955 -5.57459
180.866 218.986 -6.22397
181.98 220.002 -5.56853
211.696 219.186 -6.21337
210.421 220.412 -5.57392
218.788 221.992 -5.57392
169.657 223.13 -6.19645
170.656 224.344 -5.55522
183.684 221.311 -6.82748
183.649 221.245 -5.48581
209.152 221.63 -6.2179
207.846 222.781 -5.57344
218.155 223.208 -6.21107
217.356 224.378 -5.6122
171.856 225.351 -6.19784
173.01 226.176 -5.57925
185.142 222.478 -5.55774
187.231 223.562 -5.58286
188.479 224.156 -6.22008
189.9 224.816 -5.58078
206.465 223.802 -6.21657
205.081 224.632 -5.56583
216.111 226.044 -5.67261
175.296 227.403 -5.57194
176.618 228.215 -6.20925
177.817 228.88 -5.57725
192.475 225.477 -5.57835
195.019 225.657 -7.31768
194.995 225.747 -5.56712
197.496 225.709 -7.28804
197.498 225.814 -5.56181
199.967 225.647 -7.30776
200 225.733 -5.56425
202.513 225.422 -5.57063
213.469 228.561 -6.81486
214.712 227.358 -5.60599
213.449 228.631 -5.50084
179.91 229.971 -5.54703
181.471 231.078 -6.76588
181.428 231.147 -5.45959
208.897 231.156 -6.79126
210.464 230.54 -6.13568
211.797 229.751 -5.54916
209.367 231.184 -5.39517
183.175 232.185 -5.51732
184.513 232.874 -6.13186
186.082 233.38 -6.76221
185.545 233.354 -5.42421
201.604 233.539 -6.7972
203.346 233.221 -6.34051
204.968 232.847 -6.02603
202.364 233.514 -5.4589
206.935 232.156 -5.41262
190.168 233.998 -7.22834
192.546 234.127 -7.23324
187.742 233.711 -5.52526
190.098 233.934 -5.53912
192.527 234.029 -5.54452
194.962 234.132 -7.231
194.985 234.033 -5.54408
197.357 234.021 -7.22366
197.443 233.953 -5.53847
199.896 233.77 -5.52946
177.701 177.046 -4.08347
175.647 177.25 -4.00292
175.579 176.896 -4.95672
180.071 176.89 -4.12035
182.527 176.788 -4.13564
185.008 176.734 -4.14624
187.5 176.708 -4.15603
189.994 176.698 -4.16837
192.491 176.697 -4.18251
194.99 176.712 -4.18666
197.479 176.766 -4.17595
199.939 176.87 -4.14952
202.323 177.025 -4.10138
204.487 176.872 -4.96037
204.424 177.224 -4.00811
174.24 177.323 -4.72729
174.303 177.501 -4.09536
173.423 178.63 -3.96424
171.889 179.349 -4.1642
171.787 179.102 -4.93497
205.916 177.273 -4.73627
206.948 178.559 -3.91873
205.86 177.465 -4.0841
209.414 178.931 -4.94708
209.308 179.3 -3.95925
170.915 180.816 -4.01363
169.283 181.783 -4.35437
168.316 183.416 -4.01355
166.848 184.389 -4.16429
166.602 184.287 -4.93525
190.995 183.193 -4.95798
192.119 181.877 -3.98818
194.999 181.567 -4.0869
190.928 182.874 -4.22274
197.878 181.863 -3.9916
199.004 183.16 -4.95684
199.067 182.839 -4.2269
210.831 179.469 -4.70503
211.891 180.892 -3.94471
210.793 179.708 -4.06785
214.255 181.725 -4.1325
215.759 181.917 -4.93183
215.692 182.168 -4.23136
183.576 185.782 -5.00931
184.582 184.249 -3.96439
187.218 183.507 -4.10916
183.454 185.461 -4.23156
189.431 183.1 -4.1716
200.55 183.012 -4.18438
202.708 183.253 -4.15697
205.149 183.621 -4.11837
207.867 184.313 -4.00605
208.906 185.815 -5.01329
209.028 185.489 -4.25051
216.648 183.386 -4.08218
218.351 184.175 -4.38351
219.469 185.702 -4.05668
221.552 186.696 -4.24049
166.13 185.924 -3.9641
165 186.803 -4.09533
164.822 186.74 -4.72777
164.396 188.08 -4.95713
179.629 186.904 -3.97678
181.964 185.923 -4.16443
178.527 188.57 -4.33628
210.521 185.94 -4.20148
212.852 186.896 -4.05791
213.976 188.454 -4.40219
222.77 187.09 -4.98837
222.612 187.195 -4.32973
176.854 189.639 -3.95975
175.861 191.93 -4.10961
215.638 189.365 -4.11876
216.587 190.99 -4.39927
222.837 188.31 -4.24664
222.989 190.179 -4.20818
222.999 192.237 -4.21565
164.75 188.148 -4.00309
164.547 190.202 -4.08312
164.392 192.571 -4.11835
164.291 195.027 -4.13153
175.652 193.487 -4.92458
175.378 193.388 -4.18618
218.139 192.007 -4.05751
219.117 194.006 -4.20056
222.871 194.026 -4.24766
164.241 197.508 -4.13925
174.14 194.462 -3.9394
173.345 196.856 -4.10324
219.498 195.124 -4.86491
219.584 195.016 -4.2777
222.779 195.08 -4.86756
222.685 195.004 -4.29574
164.226 199.996 -4.1447
173.3 198.478 -4.94294
172.978 198.401 -4.18734
220.513 195.16 -4.21663
221.833 195.155 -4.22466
164.239 202.482 -4.14697
171.885 199.609 -3.93487
171.543 202.5 -4.03409
164.292 204.938 -4.14815
171.885 205.39 -3.93658
164.402 207.31 -4.15519
173.299 206.523 -4.94293
172.978 206.6 -4.18792
164.568 209.446 -4.17455
164.443 210.968 -4.95047
164.759 210.91 -4.2165
173.344 208.147 -4.10478
174.136 210.554 -3.94215
175.635 211.572 -4.92429
175.366 211.656 -4.18403
165.86 212.052 -3.95841
166.547 214.697 -4.09653
166.967 216.9 -4.16
175.838 213.156 -4.10163
176.799 215.539 -3.9254
178.592 216.487 -4.97439
178.308 216.667 -4.15318
219.664 212.436 -4.5651
218.829 212.601 -4.56405
218.858 212.676 -4.07049
218.112 213.752 -4.03121
216.762 214.483 -4.172
216.65 214.343 -4.89176
220.326 212.592 -4.50145
220.816 215.233 -5.15387
220.365 213.547 -4.13438
220.292 212.615 -4.09288
220.425 215.214 -4.12406
220.351 217.054 -4.15714
166.961 218.416 -4.95355
167.257 218.355 -4.21817
215.819 215.925 -4.02587
214.312 216.839 -4.18553
214.137 216.648 -4.97003
220.451 218.459 -4.89477
220.176 218.408 -4.21279
168.427 219.428 -3.9778
169.273 221.763 -4.17343
179.183 218.276 -3.983
180.888 218.904 -4.99209
180.707 219.182 -4.18831
213.357 218.37 -4.0151
211.815 219.316 -4.18557
211.619 219.113 -4.99014
219.08 219.479 -4.0195
218.303 221.806 -4.1994
169.583 223.292 -5.00793
169.776 223.156 -4.25678
181.682 220.694 -4.03053
183.412 221.584 -4.36405
184.59 223.148 -3.99693
186.959 224.08 -4.17032
210.856 220.855 -4.00686
209.294 221.782 -4.18185
209.088 221.563 -4.99159
218.164 223.322 -5.03404
217.869 223.222 -4.28817
171.043 223.958 -4.05107
171.698 225.424 -5.00927
171.839 225.23 -4.25757
188.595 224.178 -5.0133
188.467 224.514 -4.23398
208.297 223.279 -3.99819
206.626 224.097 -4.16369
206.451 223.766 -4.98574
216.633 224.145 -4.11789
215.803 225.788 -4.48372
173.223 225.746 -4.17564
175.54 226.644 -3.98386
176.481 228.21 -5.01066
176.6 227.905 -4.23846
189.629 225.69 -3.96581
192.403 226.308 -4.09745
194.977 226.557 -4.13749
197.499 226.618 -4.14586
200.021 226.544 -4.13714
202.597 226.257 -4.09427
205.389 225.518 -3.94625
214.221 226.759 -4.1309
213.24 228.308 -4.41815
178.071 228.378 -4.17075
180.427 229.307 -3.99829
181.614 230.811 -4.36541
210.752 230.587 -4.94566
211.609 229.101 -4.07869
210.679 230.325 -4.23207
183.334 231.535 -4.06031
184.206 232.936 -4.94963
184.265 232.667 -4.2494
204.472 233.2 -4.94885
205.849 232.862 -4.70839
206.894 231.516 -3.92539
209.248 230.751 -4.12008
205.826 232.617 -4.07746
185.629 232.892 -4.19004
187.714 233.082 -4.16099
190.067 233.203 -4.15048
192.517 233.259 -4.14908
194.995 233.265 -4.14826
197.475 233.224 -4.14408
199.935 233.129 -4.13167
202.319 232.987 -4.09272
204.412 232.815 -4.00215
175.39 178.477 -3.42765
177.632 178.367 -3.28387
172.959 180.512 -3.36008
175.189 180.373 -3.00529
177.56 180.3 -2.88479
180.039 178.289 -3.25908
180.006 180.247 -2.87681
182.507 178.236 -3.2684
182.479 180.194 -2.91668
184.993 178.199 -3.2906
184.961 180.138 -2.98652
187.486 178.168 -3.31739
187.45 180.055 -3.0562
189.977 178.146 -3.35661
189.919 179.996 -3.15792
192.474 178.134 -3.40913
192.398 179.972 -3.32371
194.996 178.122 -3.42934
194.998 179.9 -3.37892
197.513 178.16 -3.40948
197.596 179.975 -3.32703
199.987 178.212 -3.36246
200.063 180.001 -3.17276
202.409 178.293 -3.35312
202.497 180.062 -3.11038
204.729 178.409 -3.45594
204.918 180.172 -3.1506
207.317 180.356 -3.3088
209.683 180.666 -3.4629
170.436 182.936 -3.36436
172.699 182.716 -2.97086
175.069 182.618 -2.79361
177.502 182.554 -2.77645
179.959 182.473 -2.85554
182.414 182.354 -2.98217
184.863 182.233 -3.18178
187.361 181.981 -3.3179
189.755 181.829 -3.50376
200.23 181.787 -3.51999
202.595 181.874 -3.37329
205.042 182.056 -3.33435
207.544 182.339 -3.31817
209.95 182.55 -3.26057
212.3 182.796 -3.3743
214.609 183.153 -3.5584
168.012 185.46 -3.35874
170.216 185.201 -2.9681
172.572 185.076 -2.78046
174.991 185.004 -2.76749
177.425 184.912 -2.91338
179.856 184.728 -3.17716
182.254 184.403 -3.4358
210.195 184.476 -3.54807
212.558 184.843 -3.40311
214.913 185.125 -3.3247
217.194 185.359 -3.51924
165.977 187.89 -3.42616
167.873 187.691 -2.99957
170.117 187.574 -2.77887
172.496 187.505 -2.74323
174.891 187.429 -2.90441
177.257 187.272 -3.31979
215.186 187.268 -3.52751
217.466 187.532 -3.31218
219.679 187.775 -3.40029
221.607 188.127 -3.66328
165.868 190.133 -3.2794
167.804 190.063 -2.86855
170.061 190.011 -2.73025
172.408 189.956 -2.8098
174.694 189.851 -3.15949
217.735 189.77 -3.51746
219.834 189.966 -3.28666
221.697 190.108 -3.49172
165.794 192.54 -3.24946
167.761 192.511 -2.84367
170.007 192.474 -2.7597
172.28 192.395 -2.93766
174.35 192.219 -3.40924
220.033 192.149 -3.46737
221.765 192.214 -3.54377
165.746 195.009 -3.25215
167.727 194.988 -2.86477
169.947 194.939 -2.84646
172.144 194.803 -3.16794
220.349 194.027 -3.72493
221.815 194.038 -3.75027
165.719 197.497 -3.26533
167.695 197.476 -2.90825
169.864 197.41 -2.96876
171.9 197.224 -3.41297
165.707 199.992 -3.28197
167.672 199.973 -2.96507
169.817 199.894 -3.14757
165.707 202.49 -3.29143
167.653 202.496 -2.98903
169.734 202.499 -3.20587
165.734 204.973 -3.29768
167.682 205.013 -2.9779
169.82 205.101 -3.15387
165.784 207.408 -3.32895
167.72 207.487 -2.95517
169.873 207.58 -2.99058
171.902 207.774 -3.4201
165.848 209.757 -3.47214
167.777 209.93 -3.00125
169.968 210.038 -2.90445
172.149 210.197 -3.18676
167.862 212.364 -3.1538
170.057 212.493 -2.87701
172.295 212.607 -2.97408
174.344 212.813 -3.41435
168.111 214.85 -3.27028
170.177 214.96 -2.8924
172.44 215.05 -2.86244
174.682 215.203 -3.16534
219.653 212.539 -3.99769
219.453 213.586 -3.7775
217.648 215.537 -3.56986
219.294 215.332 -3.59249
168.308 217.207 -3.4573
170.287 217.388 -2.97803
172.543 217.49 -2.81507
174.868 217.603 -2.92923
177.123 217.826 -3.32969
215.347 217.926 -3.47467
217.369 217.632 -3.32449
219.166 217.373 -3.60077
170.421 219.752 -3.19765
172.638 219.9 -2.86898
174.986 220.004 -2.81974
177.337 220.136 -2.98441
179.592 220.363 -3.37029
212.898 220.415 -3.43218
215.051 220.121 -3.19803
217.161 219.861 -3.35354
170.747 222.029 -3.4733
172.784 222.216 -3.05116
175.091 222.369 -2.87928
177.477 222.483 -2.86376
179.856 222.621 -3.01829
182.202 222.821 -3.37792
210.394 222.891 -3.4152
212.604 222.622 -3.14052
214.818 222.398 -3.17986
216.839 222.125 -3.54416
172.968 224.261 -3.47462
175.238 224.606 -3.20385
177.596 224.778 -2.99554
180.007 224.937 -2.94356
182.429 225.084 -3.01516
184.857 225.275 -3.22073
187.265 225.584 -3.44967
207.777 225.292 -3.39747
210.09 225.079 -3.12873
212.383 224.888 -3.14919
214.602 224.625 -3.48
177.779 226.856 -3.45013
180.155 227.191 -3.21967
182.574 227.377 -3.0203
185 227.502 -2.95934
187.438 227.63 -3.01444
189.897 227.737 -3.17581
192.455 227.949 -3.25821
205.077 227.651 -3.21681
202.533 227.914 -3.2726
207.506 227.478 -3.11283
209.861 227.294 -3.15061
212.104 227.1 -3.46733
182.802 229.58 -3.39659
185.136 229.699 -3.07821
187.533 229.779 -2.97961
189.989 229.843 -2.99183
192.489 229.919 -3.01516
194.986 228.068 -3.29042
194.994 229.963 -3.02803
197.498 228.099 -3.29903
197.495 229.97 -3.03292
200.009 228.057 -3.29473
199.991 229.942 -3.03601
202.471 229.87 -3.04853
204.913 229.751 -3.10307
207.279 229.607 -3.26445
209.587 229.308 -3.49874
185.358 231.616 -3.51541
187.623 231.707 -3.34426
190.033 231.771 -3.30498
192.506 231.812 -3.30151
194.997 231.827 -3.30325
197.489 231.814 -3.30411
199.966 231.77 -3.30683
202.398 231.697 -3.32836
204.714 231.602 -3.44414
