863
229804.3209442585 182022.68187178602 -59514.620720773826
229647.4140143065 184871.8889901145 -59676.5955834704
231819.473845047 183757.4125420333 -58238.55639574765
233811.6830370465 182326.69980707788 -56753.72080498434
233626.3989244897 185304.6146116761 -56692.8397718185
231831.05555004952 183905.8292095994 -54757.64780220021
234747.67790925468 182571.20209028572 -52061.0162025079
234258.1642624785 185963.142186765 -51651.91392175579
235630.6533482112 183964.7700380012 -54976.009108729646
237721.7888031491 182712.6241063914 -53183.972882889626
237281.020401721 185664.06873053042 -53057.895381792565
231438.0347918399 186594.317128942 -58307.26564917295
230933.5969106057 189507.81096390382 -58082.64776815589
233125.1929786666 188246.61973079422 -56483.855327983445
232275.5530138048 191077.5021207651 -56053.882451954894
230700.8254689835 186197.8338570092 -52247.86398472069
231838.9751407204 188188.1380074803 -54348.996396055685
235213.4360224179 186964.3468408019 -54791.63391281975
236617.9147406984 188542.9308472535 -52779.77134533713
234453.2153556037 189789.1604428939 -54453.85639752267
235667.7748300845 191219.93285828858 -52315.273896915256
230006.39161842552 181668.339907949 -48558.76796535103
223274.6113943244 185375.7501329575 -50452.566578124
226861.83886536388 185806.0856762435 -48531.565418905106
232122.7026128114 182066.3474871884 -50782.730747221576
233800.4222871768 183899.4945126578 -48892.148643565764
234735.3376823719 182053.3647080728 -48953.63150629117
231213.4001093124 185732.42995044892 -48854.825948359045
234757.77878478932 186536.152301419 -48795.21899688916
226171.7770634279 182979.6487684703 -46967.95606854953
228734.71893372308 183653.997851961 -44876.72380234688
225873.6090690621 185905.5929412086 -44571.46981978433
233720.882495901 182160.2181705476 -47408.24234900512
231896.9958758334 183943.3342426749 -45899.34283525971
234431.2623184513 183569.27657673878 -45417.88424351311
234168.2337766907 185136.891775321 -47328.11737144384
234933.4281093744 185619.9723014603 -44437.16342787686
228820.39402918163 189312.2751356334 -50061.90398409527
224291.9440498201 188881.56826793432 -49879.845271672966
225783.8145608835 191639.613228393 -48892.467238431185
232880.5410291994 189555.7209031285 -50963.51498097089
232145.7161540689 188691.3927491162 -47255.258644591624
229640.744973516 191513.3850536127 -47543.17478582346
226249.85527100178 189584.8487212881 -46239.41081985669
223888.37481817338 189097.4014749166 -44629.45187300375
223740.0767306376 191916.1062565536 -45548.337087452994
234485.0837033673 187376.06135031392 -46677.49146349258
229462.9037988676 187543.2843718865 -45577.614465134466
234859.6183120124 189682.4682097585 -46023.53031716297
232226.2175647115 191461.0739977931 -44855.56105589497
238400.385534862 182476.81834195752 -48470.23627673817
236683.07863022742 184815.2568079971 -48813.08584095234
235264.8044251833 183691.555956761 -48791.50654234376
239342.1237872378 184398.1689990056 -51335.563232829714
241299.2167432387 183068.4905203825 -49498.56541534639
240702.1635064869 185972.7746458815 -49209.85953769076
240595.2438473712 182704.90258897492 -46898.60062922561
238950.79381179909 184956.0859934289 -47475.27849552137
241149.69635921612 185250.5300416142 -45745.753146809984
243180.75288377178 181739.3395504151 -47543.49756621908
242645.3799270998 182946.6673357748 -44999.46959544569
244464.0843105253 183319.7551209103 -45411.86817251095
242597.16593206572 184657.60631675788 -47309.384341930185
243743.4875673762 186178.49292899872 -45046.193744758595
235204.258187028 188970.4479286012 -48177.418375657144
237096.8528746622 187224.6331294541 -47967.38849651384
237918.0623973767 190026.77192067797 -50660.38380129839
237280.20978037818 189735.7170059955 -46890.93742938911
238762.51883184098 187252.6705679514 -51055.75421089105
241833.17880050238 187443.5018424004 -46908.515085980536
239880.1935548338 188741.1408931348 -48793.653577034245
238805.7000275192 191428.4585413591 -48255.08965055123
235158.4668117025 188263.81197860307 -44281.12499453156
235477.69071697682 191768.66371389478 -45792.023377836405
237737.4635443326 191701.4223318886 -45203.855312636646
239334.13511161951 187344.9979318357 -46032.57918503888
241183.65969327668 187457.2354483399 -44074.72994153262
242801.8522447139 188953.8296222281 -44531.892055854325
240822.97224865478 190158.757417896 -46425.43893317635
239665.2666612498 189709.604474776 -44781.37980345071
241643.49047849752 191654.3013081048 -43967.102271476055
223805.4790558274 193119.7532102474 -62164.83163465444
224098.0537446672 193225.4932276147 -57974.32955433202
224539.85544843308 197535.9738848191 -59563.293507559545
225352.56948721912 194728.49183091428 -60240.20012089553
226898.5688299272 196326.8136379228 -58295.542182255995
224519.131204031 193614.859903145 -54553.96480181435
224344.3995934127 197460.89779039478 -56178.533236033574
226563.0071826204 196823.6693018894 -54019.29281995635
225892.8642698131 199083.5316739611 -57658.39393352251
223524.484018163 200169.8958052193 -58783.72625286891
223784.53768810708 203982.1784382118 -55427.71328627387
226671.0020393617 200419.8383146401 -55755.82379209239
224825.7190601115 201646.54428223651 -56597.19703508654
223896.2955867586 199675.3085035444 -53537.87784495209
224789.5379203749 205549.6702153118 -52795.98332688087
223201.8001401822 207970.6891030813 -52042.92134160994
226279.1540103238 202733.854413513 -53997.84205481673
226684.7946277326 200928.2017933927 -51129.0667047591
227140.5080126619 204785.5836843196 -51073.69483608436
227802.50719350888 193557.11802050789 -58912.39855460744
229074.2329957091 195095.065369637 -56916.78405939984
230121.307409384 192327.2236737295 -57491.01543175797
231158.70037114478 193648.50819161852 -55369.09360986498
230915.7638815883 192405.0999494569 -51900.43115420452
227949.51772053321 194075.1453466377 -52279.50650874785
233434.1081695155 192417.5223449532 -53889.1828756327
232269.5992116415 194972.9119273154 -53386.81223356718
234526.9517656418 193713.6456149312 -51721.35118991848
228104.78283221368 198080.2679205955 -56110.528752118815
228241.8277912591 200380.1111523354 -54078.205519589435
230114.1710337168 196456.3005729457 -54964.83282674749
229572.91168028768 198460.7943240131 -54195.37347376027
229383.7238893198 196995.2237588179 -51499.20529026507
230139.0263188009 199822.169738951 -52475.889837315815
228670.418626447 202294.1577865528 -51861.868644527596
231371.8274614097 197446.6456138242 -52927.341430365996
233518.80658059058 196277.6578408553 -51231.09725728924
232362.4453278599 198808.9181762383 -50825.81908604944
224502.5843246222 194389.30257986352 -50340.58443477727
225573.6073924475 197257.23983463208 -47161.15028226137
224990.2616260242 197999.5977306161 -50218.15554065846
225604.240857124 201320.5876907302 -48065.84173537932
228907.7603212921 195262.40789654758 -48259.94484836967
229359.8533818764 199000.6857789448 -48755.948586028266
226032.34498921921 193714.1561911579 -46424.26746732807
223301.2151904733 194759.5416015031 -46343.314505340015
225363.1594904741 201275.0774606946 -45091.66967007103
224074.4596467824 197254.2793448657 -44240.473357184324
228642.042725326 193188.65136690642 -44352.5452493985
228478.2168124444 199134.9385983494 -45649.751897938746
227883.3701991714 196259.4595693439 -44210.41788785346
223136.9285134148 204380.96437335 -49130.47412096989
223806.6471419195 209446.24028613628 -49528.86011066181
225499.483696672 207148.91074934643 -50368.21197474255
223552.22326355393 207248.14774234698 -47973.7599304943
229328.6645520704 203763.576126085 -49401.58405379339
227681.9308633499 206108.7765866895 -48551.87918490428
225991.7901180062 208429.0604361452 -47708.52749891277
225009.9891146246 204739.4779739261 -45772.418194378064
224268.2151172125 210721.4920086647 -46864.56431271444
224719.18601648032 212005.9234991639 -44181.46594455732
228366.25221719002 202383.34179958788 -46592.91425399864
228159.5029226786 207424.5027454386 -45907.57879525261
226454.3902998168 209730.18759123058 -45054.3850740172
233693.92737952218 192328.4737781019 -48644.386131240804
231929.9825375787 196446.1895628527 -49053.6207466529
234442.1344772613 197724.6496959041 -48968.15791295201
236809.2856279343 192635.5592261314 -50093.46172447745
235605.3919149915 195201.61422599692 -49507.32988419265
237622.70489194902 194031.7952756351 -47723.42651550204
233272.6090214549 194830.4791251007 -46347.68148853186
231804.09292252842 198190.0585990278 -46306.96765768908
239622.11462679348 192834.25632452368 -45831.32833071565
236189.8678784977 193808.503214634 -45054.83729008989
236389.40193729082 196634.1779663721 -47089.272822500316
237055.88377357862 198062.44593674468 -44556.792025859286
238363.9329673843 195474.07114644718 -45197.60659318038
230952.5305272151 201363.87443984568 -50165.48861049958
229838.2454794434 205092.3260638224 -46742.761107272
233018.7736475962 200269.7114356909 -48298.564888147295
231470.3296065163 202717.3769361734 -47547.880426837524
230629.74398597569 201361.2834889768 -44216.29379659187
231978.0386287362 204061.3230613906 -44923.25096365696
230318.927025496 206411.7063959661 -44101.106181437484
235072.38720652382 199166.0647452561 -46423.235433179616
233576.0669162395 201655.8716507896 -45706.21911995534
221476.5634614791 181732.7190552374 -43582.74820399063
223363.0346724274 183673.6575058827 -42353.29005916613
223731.81795556788 186343.691533574 -43563.49846383925
225095.9012238284 191258.10597913052 -42990.95042104031
225206.5783079702 188444.57328750848 -42051.163785753524
224706.3072181784 194090.1461419123 -43788.81296190314
225985.59308610772 193361.7897406044 -41260.53753514332
224347.44150936068 183126.7398884362 -39761.683199919564
225285.4792275688 182481.1153238146 -36994.07733376748
224920.9904236849 185738.8123152131 -40917.298634747734
225867.57729919732 185109.3036388659 -38195.944011381944
226201.9270857069 187835.4641798691 -39321.767760329596
222912.5757787266 202495.1650355743 -43079.934910571246
221546.1409792125 204800.5244253592 -43166.39149685023
220841.3326380859 206995.87825730068 -41459.53521287935
224122.9944184656 200162.50589935502 -42693.09237267957
225133.1363076694 198205.4377018187 -41887.404439231235
225546.514468243 195994.2664972241 -41876.02039238055
225744.7830403998 206851.5603746317 -43291.20318601109
225110.004420788 204157.7124533926 -42253.02572830735
224188.5412049889 202203.4525780255 -40538.515894809556
223993.34966619487 204109.9892586244 -38271.55695575838
222672.3261954304 204735.81657059482 -40855.232387209544
222283.4619947121 206518.8579232368 -38551.55508151772
225901.3304257289 197321.5553197363 -40282.05020095864
225429.0029124874 199547.8564791606 -39998.43417318717
225387.8532309692 201623.9417141199 -37962.55332174142
226247.60362557712 190619.7549304098 -40358.21937610834
226564.997908065 195224.1907026883 -39393.54444885193
227945.24404919118 185188.4792339306 -41685.51946308875
229225.87445376458 189044.509344038 -39932.417108046866
228551.3494331537 190351.1888249981 -42734.483990300025
228720.9617709748 195098.9157114031 -41063.07002661847
227267.2572277985 190014.027283809 -37609.976371363875
227180.37684365502 187229.3570493825 -36585.617621675396
227039.4235486415 192695.17179818 -38541.12805959926
227639.0076857498 195188.7698271763 -36541.88510648359
228479.8605469621 181801.67264098462 -38364.66209157691
229131.3925423168 185183.622475326 -38169.063164567815
230483.8094236051 194924.64404660542 -38611.999731067786
230095.7698139135 188927.18336013582 -37103.53004912534
227089.3746977596 200138.8401241331 -42985.21678249871
227384.85726189608 202096.9083237044 -40047.072052801166
227584.6251644681 203070.6247178313 -43598.88254084795
226363.6135828744 206822.178195857 -40230.77682801588
228661.53251367298 198308.23330187038 -41777.45579550781
229889.3221552523 204436.3890748455 -41540.559092511605
230474.0633048449 201450.4369579144 -40869.106346088796
226665.1414118035 197449.04576604613 -38145.21453893917
226430.1907930657 199556.4253999799 -37238.433572074464
229036.8787426977 198183.0693596771 -38683.09184504785
229021.3757433851 204306.13561943968 -38189.803638915175
229389.05769636572 201396.4153613355 -36813.8330323288
226236.6285184773 181911.86446874478 -34276.98932165074
226822.5116414599 184510.2771206068 -35449.95353009822
228270.35585884142 189403.4870963696 -34883.763323229134
228118.1906766839 186649.53949276698 -33884.56733820811
228075.18196718412 192217.3011638261 -35836.936473002585
228297.85209700943 196704.9589474691 -34130.48551335164
227658.1669525108 184013.7676166998 -32742.43713972561
228345.55625675071 183361.1022837408 -29861.72030874543
225295.1276735707 203473.0147314405 -35680.83109332291
223663.4885933185 205937.65126492208 -35955.72745288094
224927.9419525819 205308.8284016024 -33406.57286383536
227367.8169881911 198200.33789957798 -35778.98618826153
227987.9208260444 199361.7276880541 -32725.78908773437
226649.9166161472 200856.55755213823 -35319.098688685495
226489.6155808228 202736.6902790163 -33077.44038300234
226029.74789465612 204523.6878226387 -30703.12408095029
224315.9848500862 206932.9454137864 -30969.12174530744
225449.30603466468 206202.2709270969 -28324.53065636568
227596.7229503818 201809.4193187994 -30485.719301826917
227139.0947777103 203771.3702001432 -28040.506402063318
229054.7449658415 188754.5117206234 -32146.039487130856
228849.5571183766 186082.5419325807 -31018.12075588643
228972.9123451908 191563.1058167512 -33288.48706076984
229564.11027614662 182444.4200413429 -34710.72250813817
230865.31275763162 185121.5943384692 -34675.75701225114
229589.2735272088 190771.8332118713 -30960.23601753589
229517.50959289918 185269.2981099624 -28117.81517241113
228924.2494003082 182495.8869848269 -27008.20946634092
229904.01097818092 188452.2132114018 -29106.15097496563
230902.3256492795 189993.4195761841 -26141.22519556638
230219.38708505372 191433.7373740118 -28768.09543529697
230824.974426095 192850.42346455442 -26550.11147785106
228710.0142796793 194341.5830775312 -33865.976485431886
228905.3294840972 196618.7780620252 -31919.38505047506
229099.3608700006 205681.03908745808 -34054.09818575187
230437.6449151632 195769.01028417272 -35644.495122873646
229530.76536942378 193479.5116092138 -31143.32177542146
229939.3445188074 202426.7818709593 -32913.50401238591
229681.9025987543 196083.9045009383 -29369.95585161181
229735.61335700942 198246.8410574618 -27219.76906857959
228899.9136124842 198760.83306004072 -29864.4488407517
228597.6522447191 200991.27637665792 -27778.204955278892
230165.6858819209 193850.7858056567 -28651.93924822948
230435.42491141532 195600.7086161728 -26859.51342377657
230801.6705269766 201950.1192566913 -28417.6592663064
212054.6317312881 213429.1501274804 -43260.236006352505
214648.8275223476 212004.3285773256 -43031.99583633084
210969.4969108558 214904.7878163174 -40924.19673295979
213655.87321033128 213651.034025866 -40770.477601307415
217237.5973346703 210217.6305378843 -42556.350888354165
219133.92458579072 208052.0939447823 -42964.24354691195
219094.7871528578 209155.17610767152 -41073.97017631052
217384.4854532407 213996.51607787708 -43756.031851705004
216145.0010700779 212061.93031237688 -40468.7576944977
215008.4433462543 213637.0958386029 -38287.132237822596
212520.7849916691 215024.328347137 -38396.07594954125
211340.5145187771 216304.9952197836 -35992.10032416515
213917.268026337 215075.9545019005 -35945.10988485123
216750.1044420446 212303.5485830443 -38468.33762334376
218227.44639097332 210760.7531633568 -39189.88462946664
217719.6199188045 212235.5917054893 -36467.40004934162
218023.40416099288 215116.8728054572 -39456.67943294941
215853.2489049469 213775.4734528998 -36180.06792747351
210757.9960176186 217507.2302085208 -43471.65105944708
212504.7372797351 218119.4862836682 -40192.33747787406
211885.9797513707 220778.533936234 -43040.16376340767
212055.3722756256 221595.0681992095 -40269.59122981453
214754.9668261279 216531.5385731215 -42834.340656541026
218873.4186324522 218308.5022736923 -41054.83069178499
216594.0929617141 219033.7413014999 -43021.96388395684
214326.4390876728 220518.48075284262 -41789.48131580172
216535.9842266226 219860.7518595839 -40671.16538083579
210121.3361547323 219487.77525660902 -37555.36115184103
213360.9135346995 219051.1446839972 -36279.02581102677
212247.9727216496 222483.9243859473 -37332.57859184404
210260.6540329777 223366.16447049848 -35962.66568483554
214726.22090891842 222218.2246175728 -35780.75841376933
215660.5918833231 217210.7225400791 -38523.06946388769
217520.80746134292 217300.8770680211 -35360.819565177
215027.1177164422 221286.5407046557 -38772.079991803585
217807.04423348932 219819.7386143069 -38531.31129400947
217053.278625442 221048.582399017 -36254.403392810214
219286.8956642545 219745.72722429078 -36027.23706591824
221743.7374272602 210546.4027518 -42525.07799005967
223989.66395969607 209565.8310577554 -40542.23471041465
219695.64331610722 212281.5832515505 -43538.04483317042
228619.1118918081 208729.9448587387 -43258.53551919324
228851.4687849468 209801.2802015922 -40492.4920351994
230652.0415830212 207593.0799546077 -41385.38310265058
226863.7014535364 210986.2934293545 -42372.86586645774
226975.6029940715 211993.21117920478 -39664.69002681758
220374.62172522082 208790.1453108553 -38690.421270825296
221814.91019437189 208191.1258141947 -36263.0530629152
225506.1729386348 209599.0232781675 -36386.43250747858
223256.6600701437 212177.92181739482 -37520.31330868549
219813.1791507555 210345.79829450478 -36397.51031352004
230913.0144461008 208411.5147660973 -38874.01699148049
228520.518669988 207112.3453555468 -37276.54973519699
229172.9142070919 210690.5890614419 -37631.03176955472
230640.2753617595 210374.5506339769 -34890.01623963721
220343.0930878822 212692.8269626576 -39857.15295782414
220993.7192042786 216294.7697559452 -42384.04419563584
221214.9768640381 216974.96178257588 -40003.80908616917
225022.9315561417 213139.50068114078 -41429.782956244315
222936.02840964802 214228.74928798398 -43275.694811718204
223118.1629477158 215234.79376022852 -40463.94391033486
222536.6305368849 216624.19445939138 -38073.606563804664
220029.2410298793 214795.67096337248 -35519.7510351678
220171.3155815177 218338.7927811482 -38324.15123778159
221654.6238932494 218148.1296534189 -35777.69722823111
227122.67072489168 212853.8189398944 -37227.54412844462
228476.5650436778 212384.5084973412 -35162.870494876646
225033.1003106453 214362.17174800378 -38317.681065587
224062.9017252825 216219.6940734816 -35715.48705419261
226297.8895097946 214348.18552474512 -35400.12112657172
212684.33206074912 216385.23416598368 -33526.06761071395
214925.88295641998 215156.4493008591 -33708.54706909306
213916.5681072582 216195.7861718458 -30938.911432617602
210089.3473062633 217398.1440254058 -33547.12846793262
211540.6831202018 217277.2526868463 -31024.649924853118
216841.6070984868 213798.8737184179 -34072.92955377283
219096.7255644734 211946.4150753387 -34002.27178782649
218145.6440479499 213209.7563314281 -31627.33575698028
218901.7846073245 216934.0853921129 -31852.68893054923
216112.33642650102 214780.7593769182 -31373.06442536599
215647.3160093345 215592.6661025429 -28291.885344201808
210290.6497244226 218124.3279968788 -28444.03061135703
213044.7287085646 217017.2765581676 -28393.01351221874
217475.0875301314 214138.5983408284 -29426.86566312205
219386.42913609248 212678.0338579992 -28921.12925327192
218305.1806176462 213960.6144394091 -26883.13372811776
218194.5899627682 218069.8504390407 -27045.8205166863
213167.9837827715 220191.7507154309 -32550.73672190129
212411.0369506778 223142.95649613088 -34647.74806055054
212701.3386985416 223497.4392088452 -32389.985470670483
214683.4762481733 222720.5857042954 -33157.720877641164
218333.9912507236 220901.35190525872 -33656.05976046474
215622.724751974 219005.51886108788 -33355.493994870136
216362.4397758286 221817.1062494476 -34169.54545104941
216796.5929252377 222135.6831545017 -31400.57722531822
210105.81149289227 221142.4078965953 -30762.484149453092
212615.0020246882 220885.31648599208 -29273.58957073274
210884.9870128684 221956.2763389834 -27396.5682297868
211364.2492537113 224191.6135538223 -30642.659938936573
210047.84624425202 224943.3054615496 -28338.52211318154
212927.1446120041 224206.53191687271 -28290.46823553031
219593.0293837479 220704.3910832409 -30830.39443402606
215478.52477981162 219167.48648139322 -29638.086901753202
214225.69796171522 223404.0323825334 -30513.49063200335
215741.2310342118 223163.05717330458 -28268.50303663801
218448.7736874979 221855.5378523788 -28315.75233467031
221217.28787930578 209876.6116604314 -33824.420731681545
223177.6533971977 207659.7910680965 -33635.26079676402
222416.9848628129 209203.5770387022 -31193.781039333728
220332.4877026846 211309.0285819422 -31379.46182493922
224248.2662816497 212611.61258271968 -30760.73133661998
228021.75777435992 209136.42466706282 -34071.836430826355
228148.1881033286 208233.784101689 -30715.092420262677
225753.3185988009 210288.9891118702 -32602.307933446824
229815.2666282407 211786.6141986349 -32657.84054644775
231015.294134578 211165.1390358533 -30132.195098666907
223578.59249615239 208495.537165971 -28555.261005126253
224755.5279215788 207799.38452792919 -25920.480143594108
221560.32069439642 210663.2916083953 -28754.965326348258
220657.5625175371 212106.9965502638 -25979.809420090958
222813.3375403978 209937.6040020906 -26143.79811861259
230549.9783417101 207498.5153195997 -27752.278262581778
226426.09542346612 211104.62047397642 -27527.34078534801
230390.78962274332 212422.4084982704 -27208.733206405308
222887.0295367482 213060.1551675685 -33809.96141591318
221307.6477044268 214623.931857023 -31191.32810982063
220705.4561501663 219499.5959031496 -33333.95336641268
223113.97041587238 217747.1695598864 -33215.38310662638
222077.4538759299 219039.6105949138 -30714.24578325481
227643.6967174866 213836.09706027262 -32852.118312453036
226693.5961920452 215242.3742075226 -30410.298429539922
225425.1912486377 215835.94164414212 -33035.648785720936
224434.4613784386 217201.6544627021 -30564.01123905269
220535.609393543 216860.4520101855 -28265.3802305168
222317.9892497595 214497.5439593067 -28059.521029039162
221014.87711474352 220317.6205070155 -28225.27592970072
223415.3037795582 218564.60735022428 -28095.66184969513
228891.85569679178 213225.27563714952 -30201.948601590408
224280.2603720264 213288.0006428553 -26880.704459884233
225752.5369016437 216607.24746291398 -27965.096052018227
227951.6837731914 214646.48279124632 -27742.20112798407
231397.7372598678 182602.3220831419 -41570.7475082412
233356.1139113192 184031.8459179216 -39607.06204384158
232361.1566401405 185238.8161998426 -43306.71213811821
231599.658139916 186607.0655898384 -39748.33100264727
235017.8879220415 183792.24252160132 -42919.177194139476
234870.1991147972 181816.3463893567 -41280.28715343816
235707.6604906436 184466.3074690344 -40535.18417066231
235520.93221183988 186424.3941475431 -42321.80527362233
236205.9323430577 187014.544502876 -39676.275492421024
232243.5146579758 183734.94778220938 -36934.25120350351
234514.5443418388 184513.79131780358 -35807.72861404292
235635.9798475702 182364.95571790938 -38653.333734687505
236284.9790649981 182874.721992936 -36453.715284224505
236466.5273088833 185155.3324030051 -37620.15355236697
237125.47745425932 186368.3812720542 -35387.58626200837
232817.9045069822 188629.5649622654 -42939.29670550682
231866.78064140808 191821.181738153 -40889.28226763858
235551.73212539198 190917.758545282 -43634.53061195749
235900.5782852913 189158.8812682202 -41504.090188038164
239216.17785691418 191833.2456193492 -43183.081742717
236243.9965027062 191838.6787563845 -41121.72192722467
233908.8426083585 188312.5476381219 -38288.2496371371
232878.39223197862 187857.0358265411 -35217.98315800483
232806.1645936707 191465.8363168094 -37599.19562342751
236577.6898409725 189645.6256196453 -38812.521432308764
236842.23545554638 187714.87401228488 -37125.03298335459
237054.9186556591 192313.9746912535 -38065.44574334272
237191.75239091148 190339.3167009367 -36365.69587570645
244298.7477935482 182985.9868993286 -42681.42175672556
242851.0806784548 185274.35867491848 -43461.25483678252
244419.8432307711 185330.8936587713 -41160.80055757157
246353.2721536736 182018.3079845083 -43453.47528576308
245884.611777007 183022.7532754747 -40420.65123572953
247387.4262049578 183550.5035017379 -41099.80617791628
245648.2650381325 184893.653044879 -43121.136784838425
246471.5233325504 186366.2930164715 -40642.665554281724
247211.1145049144 183044.5581995246 -37876.12034801086
245798.0600494702 185213.147666032 -38802.15935046935
247048.6594677419 185213.70063029762 -36247.17194582337
249094.2135885081 182182.26643663872 -39057.02199623137
248486.61084481218 183010.75374913382 -35390.30534649462
249958.6499043712 183656.6295496288 -36599.92818195163
248208.7705655892 185007.3777901088 -38617.655134759894
248927.0101108315 186417.1028495906 -36077.121274835765
242678.31819976642 187521.69391401738 -41855.7552491235
242753.62236911617 189614.6449963684 -40300.33415381513
241225.79488393178 189747.07672122717 -42448.702124202195
240760.65121112482 191807.2882237283 -41120.99810479319
244760.13308993148 187710.5945285136 -42653.347877739405
244260.3840516737 187521.4840915503 -39574.506558417976
245378.71426516402 189095.9609043276 -40084.74170020902
243614.3511009699 190454.4644253026 -42089.612266812896
244165.574845219 191759.6983881921 -39453.025276739194
243956.1426990505 189599.5644891198 -37861.144240851434
245065.7193059271 189485.0542349267 -35449.15303648584
242251.1311385708 191497.35189951578 -38816.609392384446
243229.28154209838 191517.4424912216 -36288.23431507031
247146.9756977215 187753.0916219063 -38078.06983701029
245590.43194497228 187394.8642116751 -37186.38823420713
245938.5230987494 190420.3803419274 -37459.99302781342
247745.0347892759 189099.4827043222 -35473.005131828926
232500.4554970719 183651.35577419802 -31772.630354438283
234866.6773867977 186276.1555278166 -33011.49741715713
236510.59541517092 181976.8424141683 -34306.776767494106
237316.92037743618 183283.19905918432 -32165.02311011817
236973.71245876618 184316.0420086951 -34790.92515506134
237714.0509452914 186042.66427786992 -32507.331878561894
235401.8588850097 183006.9645720367 -29062.87801850418
231905.2789711343 182823.8827119762 -28605.59445491205
234533.3135883121 186425.8662834891 -29576.10770715573
234650.2738097512 184793.7807682101 -25941.26121948478
237510.0130853905 181995.3221526521 -29656.25838962636
238316.7863842718 183450.3000044412 -27411.45173094407
238049.4007539482 184750.3222732915 -29991.467355060413
238704.44584102818 186166.57337855178 -27680.99191200401
231477.0409183341 187578.111444012 -32152.75708726618
231174.3501020351 191139.2785844445 -33793.19078271057
233745.5104359444 190206.57371109142 -31519.69183883253
237479.4820201044 188346.4620274545 -34537.34629375263
238035.2137301079 188708.2466264243 -32122.236816338598
234982.1469622838 190756.5123783854 -34657.05016522606
237938.1959643522 191081.56488703692 -33523.24986028232
235839.93946020262 187702.3580585627 -26516.22959044836
236276.42974812698 192477.9006812955 -30045.145894405832
235518.37879009382 190279.6086769191 -28234.85074621011
238348.6207969081 187582.267912629 -30114.581309252688
238944.1233558888 188919.48042168288 -27844.633439823072
238607.2857432329 190415.9841696292 -30125.88608540136
239355.7880371617 191784.14319565622 -27779.00067708426
249666.1080115357 182998.75760358092 -32852.40560181947
248276.4195231814 185232.23125705018 -33745.14083334783
249271.4544031366 185220.9876290156 -31150.7574213848
251683.35298445998 182287.71421018042 -34573.30541153277
252231.69343103332 183624.7317496186 -31944.13465620114
250657.99650787158 185057.3823524481 -34048.99907554771
251046.83513378332 186310.4098192623 -31358.57951966896
250752.5738635001 182913.16860046602 -30248.06945892001
251791.2606333754 182808.0810729694 -27599.879446553052
250222.0580404015 185035.7204260646 -28524.65559985627
249686.5273067649 186664.0430934563 -26828.54755588412
253823.10781726099 182199.9345955993 -29847.09912842697
254311.6535052455 183500.50368981622 -27195.534607135633
252675.8666142861 184904.3461615948 -29272.46431788173
253024.0635047686 186093.20904394749 -26586.04455106574
246086.7055924389 189506.10312462001 -32915.05725685136
246690.233293133 187408.22825336189 -34637.25883614276
246906.71106591172 189205.80601742922 -30659.98697287628
244294.17336244963 191454.45772407707 -33626.20788407469
246451.2088788881 191715.71071379902 -34811.384793669014
245211.9013997103 191385.3831414413 -30767.499207008063
249457.3278601664 187728.0321924949 -33447.58788749775
247734.96070237062 187366.065846264 -32006.790671485924
248137.8722815206 190317.1533117741 -32776.811086194546
249726.2453644274 188888.5667043328 -30722.27614560707
246884.8023034283 190022.8879366107 -28260.66288531963
248459.646664774 187471.35259549718 -29284.056544510542
248277.0919527973 188794.2299745064 -26415.08168490946
248325.96675868708 191396.85436524992 -29992.471100437382
245020.991390523 192106.7396219897 -27784.741015639738
248480.26603001132 192455.7526556149 -27198.203999527843
251379.8794747019 187517.7967965182 -28647.847352094937
251622.17563661968 188596.5315562661 -25948.19231798357
249983.15260107 190014.7574748822 -27989.828820458817
231923.7128842786 195377.5659848047 -42694.858331717056
232428.3491534541 198884.3733834199 -43631.16257990239
232336.16721775848 198582.4532241703 -40713.84639430174
235580.199833217 195889.7474498426 -43836.35256864164
234348.7399635677 193202.11405611492 -42619.55161725949
235640.0869951636 200562.3392774946 -43850.668740321686
235215.95822153368 197446.7046030855 -41312.691844507906
232946.30042711712 194156.0772254382 -34305.89218700472
233845.0728405153 200918.7731398629 -38659.86065016131
233143.0015032 197945.9154967226 -36960.55988430757
234463.4482571382 194582.6905314457 -38301.21214801358
235460.0192425863 200985.16654699598 -35180.01055180321
231986.9381489295 203619.1241539769 -38342.413092753515
232425.2070532856 205350.0837805075 -42260.167903868125
232636.8874526101 206271.31946352942 -39682.33980043236
236043.641254 201805.62073762668 -41163.801974155074
236252.3012799604 202880.0674987822 -38378.95437815061
234096.0300172263 203010.5178756198 -43089.44591438974
234346.69597408568 204126.90003139328 -40343.840570473236
232383.7289983484 201637.4252075513 -35768.22404509493
232156.8891674292 204836.8924076528 -35073.42465693877
231380.1752197274 208908.7578165626 -36593.13834991852
232976.355316357 207034.38492559682 -37112.6287266781
232798.26624363402 208287.67421199958 -34660.050221751655
236473.5920020531 203919.3690270748 -35634.083658759926
234599.57624845568 205064.8512053203 -37646.37888211586
234751.3006242224 206125.41389231192 -34922.57544537053
237253.2769165691 193037.41376743763 -43487.02685965503
238511.83756903818 193392.69919338598 -41702.064295948934
237586.9730661836 194191.4017523415 -39919.1312504636
242402.4131396903 193111.505621955 -41466.217450303826
240180.6039189295 193244.9891419742 -39485.210286714966
240390.2260495899 194297.37249921932 -43336.75644839082
241090.1801788173 195716.1679474698 -40796.8397228809
242907.2741985439 194403.285388885 -38814.669211909655
237775.0601577381 193072.20106408143 -35815.49894293498
238696.45811390292 194394.9903536885 -37529.538278897046
239831.31701078618 194521.3896955293 -35210.9610416683
241193.03713415458 193252.9087914664 -36950.14109554561
244638.5568831776 193032.62027699902 -36795.05436942759
242242.5454597836 193232.87336182612 -34390.076049212126
243258.70233075612 195593.0705062103 -36091.49006325434
236806.1365473695 197720.0723758998 -39205.20752024751
237659.1165522937 199437.88545863048 -41966.466442214616
237908.6634894869 200528.7148841704 -39203.376107659744
239091.379871471 196896.3164951725 -42680.6063963823
239497.12820114562 198158.416079971 -40014.47075348331
237020.08765214068 197460.19525371198 -35632.40434060491
238147.43937008 201628.5297572579 -36431.154411324154
241385.3650587392 196863.4021567546 -38048.89307502935
241651.10174294698 197984.3543984655 -35299.2806213925
239787.9949207368 199263.9267158304 -37248.91347088362
240029.2131879574 200359.9032851953 -34473.72883712815
231669.72387018192 195800.3068614389 -31547.95443672356
232441.54087752468 192954.0113253077 -30257.557535335858
231175.3454220501 198755.0437023002 -34119.50493196528
231475.5007689144 199438.28553730238 -30765.650102084328
235608.6650981379 194173.53842778353 -32409.468037705756
234565.1570260897 197881.62642290207 -32282.500030223822
233417.01607499452 195101.1895603447 -28714.1122697961
233567.9544855132 192704.02077505572 -26481.353767100773
233001.66613726522 198559.4299131324 -27510.83765416113
237894.9238342215 196520.2487881177 -29646.63642923972
237570.4009435283 194339.4812069101 -26912.24505322964
236504.38329308882 200640.21802579338 -29968.9084252914
233991.9317319235 202923.251098332 -32333.04764089818
231400.5891502834 205486.7694108726 -30734.93829619817
231948.95232305938 209698.9841013487 -32486.970810059047
234359.91570912712 207326.91271621248 -31963.71971074835
233093.2946292344 209139.1910966056 -29773.72707181046
238190.9912461137 203448.79116702272 -30741.2578285474
236461.0948234231 204871.71936418742 -32800.995432509066
236319.65166930621 205680.1654005812 -29975.422579829392
234458.67932024522 203111.2224255024 -28545.79160182827
232894.4109675191 205110.5555544402 -26291.51503665647
232244.5758483615 210452.8377548076 -27800.24478464367
234200.3705985006 208702.740975025 -26633.484284901162
238079.0403557984 204241.874380048 -27859.012451762967
234892.12083772052 207467.375647452 -28873.52646172974
236263.58583449788 206418.6259592946 -27009.96462743769
238714.5391944796 192911.28756474232 -31722.36537054673
238584.2224716011 193731.9248463703 -33548.16836333563
240847.4284770068 194450.73414032251 -32247.096591780533
246718.7041475668 192850.780533393 -32055.438808556068
243149.05407698298 193126.9733003184 -31997.591683538813
245063.98458689818 194274.0612918628 -34113.19504080977
245154.4407669948 195284.413653604 -31290.80562416323
239353.7035700271 193163.53229641772 -29574.20018709855
242728.53000336242 193748.21347006032 -27312.60428302447
241718.5111724815 194123.96665201162 -29947.76453798754
240525.549701056 193966.7650154366 -27975.970946580917
243650.0004428585 193013.52954535699 -29694.71462802548
246801.8866059013 193856.4962869855 -29259.87656326091
245133.75912448668 196197.0171164753 -28482.83016132694
246857.70802164602 194745.0735297147 -26455.8758916088
238743.9676844034 197919.10752516278 -32731.965380419297
238297.73034583 202636.1450907698 -33609.853871231055
239989.7847581467 201222.491890148 -31611.17188608187
243499.9214870924 196714.9474202926 -33332.90428424529
243441.0202169045 197587.7276142362 -30476.76244623536
241759.61483000522 198970.7987309435 -32474.733604558118
240761.06705432478 197243.9034053993 -26370.59227877548
239888.4245632049 202025.03736053442 -28731.14479007049
238806.2754481844 199905.6405632197 -27235.5131318505
241100.6066176395 196570.9057808175 -29658.26403145726
243381.50533003802 198438.5319248882 -27585.71254395666
241682.1342842097 199794.446417075 -29600.05785549806
241596.1046461105 200625.1513412858 -26742.56965285177
175978.3406121484 148866.24726908328 -21273.95355468346
175079.7303799946 151236.85128719988 -23140.06741093804
177644.0179508308 149261.2635735774 -23681.15916302838
178352.3523999833 147147.1386989431 -21686.84364777966
176978.03611257128 151456.7078255001 -25632.92964261306
177623.2813935013 150933.0666149751 -21181.48873990718
174419.68559239438 148275.3401621236 -18622.872692091172
173794.40396387203 150431.6761316702 -20333.906266991933
179052.87442875828 145046.0242131247 -19696.34344275234
177270.3817406379 144552.9448699402 -17363.08041680708
176603.44424918928 146696.4013189776 -19319.2160681301
177923.85700464662 149229.1688392363 -18234.96395952282
172935.5268952606 155427.6954713075 -25086.315016062377
172122.94085604092 154926.8606464718 -22997.99844849473
173481.8928493273 153331.9172032769 -23375.66643084367
171422.3793053826 157405.1148747347 -24579.70344177664
170396.8375779382 157087.9709536718 -21921.6807735654
174817.809801063 153332.1609766976 -25326.66538593259
178296.7818795734 154843.8436240404 -22180.75978565606
176369.4011868961 155442.17907593778 -24586.52113523383
174788.4678076725 156975.3449393229 -22486.66068248928
171592.4672262948 152260.75633158372 -18869.3193753746
169894.4287343117 154394.2507868827 -17544.35999560421
170951.52206420762 154634.9782370385 -20278.84250077575
169437.7775872681 156892.7940042176 -19073.810152835373
172794.7276611042 152551.73086791398 -21335.97597925318
174932.91831268498 153570.1528888193 -20465.00458202658
173641.4358393 156272.1333086983 -18659.25492058235
182810.43018778478 146314.6435131588 -24140.595120754948
180891.459694308 145615.67871985032 -21969.54706445607
180168.4285755098 147686.00991772892 -23986.87178150186
183554.748058521 144280.773079253 -22091.37986211953
186309.5322013112 143167.8380012274 -22060.80766843415
185547.4516165864 145129.6799889151 -24141.725130807517
184779.1138184038 147146.92962695 -21816.43602353533
181634.4538613506 143578.8548031612 -19925.59259163767
179752.6944263087 142945.4155241584 -17705.81113279367
182371.97180643902 141544.31811439118 -17880.58519493135
181274.8006286822 146696.248210149 -19523.98880611218
184313.00912614272 142296.1265662759 -20008.32134362619
187091.25491511822 141191.80348341318 -19969.15297071148
184441.16468319859 143788.5315285132 -17821.816039599882
185095.3068462499 140322.7166994554 -17926.508558982332
187430.46547113452 148335.8160368934 -18757.28048670744
184674.0455523771 147065.9556472725 -18294.312357881823
180172.72761572598 154033.6981844166 -25201.965029535528
180200.1902874878 150737.7971538353 -23234.618340196528
180965.670782291 157816.5767702123 -25130.52489110959
182020.4706730464 155625.5579687586 -21943.26850543411
186690.2271766522 150831.91184263403 -25763.71552547193
183826.757027764 149339.7047288283 -23741.3041222134
186468.49955994342 150356.4571176554 -21840.14356008446
183671.5859925863 152586.7293704178 -24885.59299420513
185107.3830489648 157591.3110381439 -22650.99209989447
181544.6874830733 148999.98807531092 -21032.136246502538
182025.10363870912 150273.51058528628 -17404.7001429433
182555.2767831572 152248.61757123942 -21684.02570520452
179876.9564070991 152520.267869004 -19328.4608944758
179906.6920038874 156254.6618639297 -18465.283869161853
184735.1930936431 150485.46116460869 -19482.55940821954
186462.5233495955 154051.9436649765 -21259.06119945655
182994.66833999968 154006.44290157998 -18889.23949674395
184457.0843427429 157041.8492115635 -19126.11410375929
173136.275860044 146185.00569778788 -14222.30559061118
173149.53488202888 147833.6467313713 -16173.21385362598
171242.7848102435 149104.55832513468 -14487.60226305737
177972.6264239931 142457.0455601495 -15368.700889587959
175584.1153872252 144179.9909919313 -14939.1468849686
174954.8887827571 146315.3798665379 -16828.240112584423
175428.501791561 149043.2612852205 -14742.7814682427
177501.4478570788 146415.9795894007 -15250.30424795207
171353.1564185663 147281.8275555299 -12583.81920701071
172124.767208762 145301.19195808668 -11561.14190295337
172998.2957559258 149487.21631068678 -11625.53239561583
169953.77844876252 149333.36707727652 -11579.4873023737
176218.0112803961 142006.8993183048 -13008.85543912174
174559.1830333623 141659.25902070673 -10567.35976374585
176892.84577750412 139908.49331726288 -11040.11262341841
174006.62669845182 143764.57447428707 -12514.32745475696
175565.870224629 145756.4161225459 -11432.2978473226
172178.3708364343 149826.3147548977 -17019.34741802284
170410.3313266433 151943.26675424862 -15928.73622370237
168626.6518622763 156762.9010615283 -16216.56720938434
169059.64696053122 154267.17209194187 -14660.77807487161
176647.9634640901 152814.6658055692 -17219.48854112577
173633.13143615742 152237.3763777917 -15585.9785406094
173791.8379392059 156750.8805958202 -15096.18833607002
177795.45447432308 156017.2837062252 -15005.26049323187
169518.438321433 151781.2729063193 -13098.916087994021
168526.7167810935 154228.7205295513 -11738.806951311639
171260.25572603793 155290.5394276096 -13298.364631104081
168092.3692388556 156721.20198615058 -13293.038246549919
176580.1020326071 151232.9335001608 -11544.426374175011
173731.56656328458 152460.8380463448 -11464.50641832689
175668.8955634741 154062.9742326481 -13310.508276694422
174818.5622221341 156590.86977146548 -11472.37446090511
178068.61853289668 154434.21269901778 -11195.299450776582
183124.52008933268 139512.9155339888 -15838.172283838141
181234.7086410973 138860.4167430418 -13629.68980607491
180486.2652188251 140890.1024033621 -15677.7975670592
178671.69141326388 140381.4861951979 -13396.5567316695
185870.948234074 138347.59643261568 -15828.65363570453
183908.27465135168 137515.9907717692 -13731.82281623091
186645.14897200622 136375.1729988458 -13728.59373581187
183365.46485292452 143671.0675616193 -14070.55864678339
185773.73775171008 140988.7087848637 -13520.960648830449
181958.86003152112 136841.57222510778 -11577.343722984819
179401.428000025 138241.88133093822 -11372.337475585291
180247.3804389585 144553.8900891494 -12744.39326837915
182534.7011473157 140921.8349062866 -11691.33906738832
184652.4509716979 135554.1290547103 -11630.44792741886
187422.93393709118 134443.0046058472 -11571.34681034503
186340.5866660429 143622.3935773512 -10783.242049142631
180250.26287358408 146018.96571854662 -16779.17560020522
179974.9576114637 148380.6615752088 -14798.822657946139
181671.3564648947 153860.1404826403 -15664.3492703193
178601.1911100097 151641.56493970178 -14387.25562104116
185633.93490775622 150786.92730405089 -15326.4868965047
183878.50073033912 147315.7342558874 -14366.32577752002
185670.3897275441 154084.72657334618 -16916.73104547462
183346.9026370669 156621.8447520078 -15921.68214833956
178716.2165410584 148572.8463996317 -11954.87772512061
182236.8982063912 148117.611785619 -11350.688113579921
181751.515427838 150614.4214117213 -13698.674269266301
181382.03353503862 155067.9361268959 -12390.91760696936
186991.1385905837 145820.03648500008 -12422.70131014462
186083.8287693077 148524.4126241976 -11647.358827127791
184580.4391826882 151524.64186525132 -12214.926334102589
185301.17995386102 155110.8955745176 -12820.73373793049
187436.7889627699 151940.5288087529 -10547.81688352908
169395.8324325854 162021.56354940298 -25045.56081665656
168546.4463926035 161914.8051586164 -22211.04437405575
169865.3461025997 159585.1560826359 -23496.84194471199
167611.6724906446 166953.66489108908 -24865.5463664571
168137.05334430138 164379.4205962116 -23716.88458770792
166998.00301506388 166681.8021938206 -22188.116427468787
173793.4761962075 159032.90595366262 -25245.80339721141
172337.3024658233 161940.0834296566 -23212.53826222492
173750.6589318051 166238.34619755202 -25419.555394905077
170954.72419886632 165043.2666478645 -22583.47289209576
168976.9666288106 159471.39997760378 -20685.41390172574
167815.2360864455 161774.64814876238 -19314.93156808798
167420.84104500408 164292.3213696281 -20881.99318290517
166314.6998296347 166684.471750935 -19512.75651856363
169749.93288356048 165496.0359368448 -19066.56577644332
172364.50170939302 158474.6355181415 -21228.665747344392
172872.85950596278 160173.4859161094 -18147.1332020905
170770.81945262488 161965.16572792918 -20276.1343993029
173464.063702099 164173.82562347 -19325.25097910337
166569.07291138198 169343.8981489732 -23701.98101155149
165536.4176148773 171795.9749243421 -22529.048899127312
166185.4750284082 171926.2631451783 -25221.80004261357
165223.5082003033 174405.0259075791 -24020.50714323443
169480.7060228883 171060.34072190122 -24130.59695010552
169957.264675735 167617.4399974589 -24548.983683481878
173920.4268848564 168805.0507398545 -23426.314889730238
172578.8006441197 172315.1901791142 -24454.45158002526
169422.9991425006 174403.96710939799 -23704.81142144444
174082.8869053478 173907.8369475434 -22978.20509555766
165917.6092062831 169116.1004374554 -20867.93773385991
165195.4426491345 169116.2273113223 -18186.398944355682
164545.5737824782 174220.18176745082 -21269.06606902367
163850.05896459988 174099.98047227488 -18359.648292389298
164875.6647020686 171652.4383012749 -19720.2680948091
169417.7316819721 168969.5473969151 -21297.00947245186
173273.63297173742 168225.2964187138 -19724.667745626528
171961.654712642 171687.71714438612 -21539.1189231645
169007.05460315838 172558.91177482952 -19811.52006805907
173599.7640331029 173721.1698203556 -20169.051778002187
176336.6056169991 160915.5315376324 -24336.117809408657
178813.18227380438 159103.87038051742 -22792.12045574423
177703.5875816838 164624.71705825182 -25703.267739081588
180358.9808773047 162518.8323369931 -24976.522520692877
187245.9456668879 160122.67873570908 -24195.60901650826
183421.3464608389 161250.7683438335 -23671.85565112662
185497.93322699968 163791.73146355042 -24345.00856240481
187378.9035088924 162710.2248299902 -22417.39730387341
181695.02017545712 159424.4609547457 -20384.955857865312
176859.59843540788 159023.8996989866 -18828.13712007266
174909.3984318811 160973.09242414183 -21147.099412422052
181520.5252225 162702.0276611702 -21357.86669151792
178517.5564648729 162564.7093265457 -20901.34680900217
184772.7891236148 160566.50107650482 -20386.51512181995
187571.6215026358 159292.551717689 -19790.10987005519
182245.6697447735 164694.790453454 -20728.14612243601
184717.45593105082 163574.5233345961 -21581.640168494272
183963.5164241592 163385.8581999119 -18837.260981806998
186584.5402152108 162392.5772465967 -19532.74484542264
177371.7504035778 169778.44130818208 -25545.39630325895
176872.80368153309 169613.4576609149 -22661.61498086574
174631.4881853098 174013.3972889221 -25881.9145073298
175612.6974288636 171754.48367235542 -24289.732139085838
182937.1807824571 164851.8568642642 -23530.99781808017
180562.89154881053 166130.9973380618 -22376.619390815078
181116.989615149 166291.2036290785 -25086.977480889018
178881.4289693034 167829.5754297251 -23919.660527199892
176051.4763473781 165475.5985558112 -21827.213632858442
175097.2212187036 171594.4327916988 -21306.95576303
174600.8405620267 171424.13583006358 -18472.75019575089
176323.7768128494 169511.9302017416 -19802.05731673437
179950.7478789655 166006.36093959 -19593.61443251521
178333.8605328274 167683.6509914897 -21033.1255770272
177738.99516239399 167618.1948113199 -18296.524170555782
167159.2625929518 161695.7951651247 -16414.07093187412
167624.0598014057 159207.34035959252 -14853.17304521416
165624.926164865 166615.9859659445 -16619.98697106482
166700.7144188465 164186.9731374864 -17977.007411358532
166127.39946674192 164135.41264604838 -15056.67283536809
168199.9693926689 159288.422174861 -17778.08677850663
170940.9863827851 159355.9315695776 -15448.72173505226
170356.435273278 163033.77346511782 -17014.20961460051
168209.7391405295 165689.6006944698 -15867.870772153969
170966.9072819191 167319.06504780301 -14806.668790503529
166652.650248789 161656.993931511 -13434.724304624091
166105.5487042247 161634.5361774898 -10575.04108774415
167168.0137848417 159200.6911130097 -11909.296152421699
165106.1710656223 166499.2233346871 -13710.40411817209
164520.3350558056 166533.0390644704 -10860.694658960141
165629.83441452222 164056.6795059094 -12226.25310853878
170754.5974465683 159240.76961474508 -11877.657915999069
172470.31302853572 162418.70787006142 -10913.09771686622
169685.2873997172 163357.3228741496 -13334.97710581934
168006.28280589418 166130.3687199774 -12077.87987733523
164153.37719498048 171565.8603138539 -16828.7522501823
164597.80267758179 169057.51802546252 -15267.44424010947
166569.78367166308 173198.15898794038 -17673.55171658041
