859
168.99 122.499 -30.1462
169.574 122.603 -30.532
169.806 122.273 -29.1948
168.483 122.185 -29.0009
169.104 122.949 -30.5231
170 123.25 -31.99
168.497 123.208 -29.1548
170 123.25 -29.865
170.959 123.703 -30.5953
171.627 123.533 -29.2536
170.471 124.14 -30.5923
171.117 124.275 -30.2778
170.261 124.721 -29.2429
168.174 121.237 -27.608
166.55 121.558 -27.0242
167.325 122.109 -28.2464
167.307 122.781 -28.2838
169.903 121.214 -27.4334
171.103 122.512 -28.6936
171.744 121.946 -27.3498
166.465 123.099 -27.0563
167.63 123.79 -27.9551
168.927 124.362 -28.6847
168.206 124.998 -27.356
171.793 124.803 -29.2691
172.461 122.95 -28.0502
173.094 124.047 -28.4627
173.793 123.517 -27.2807
173.568 125.102 -28.4694
169.559 125.464 -28.0359
170.898 125.837 -28.4158
172.132 126.031 -28.3919
170.338 126.389 -27.2369
173.582 126.144 -28.1226
168 120.41 -26.494
166.84 120.599 -26.3291
166.23 120.201 -25.1189
165.758 120.969 -25.8746
164.865 121.421 -25.1697
165.466 121.783 -26.2752
165.449 122.507 -26.2721
169.209 120.438 -26.4722
164.867 122.665 -25.148
165.622 123.64 -25.4855
166.945 124.319 -26.6667
166.425 124.731 -25.3453
170.537 120.682 -26.0959
169.709 120.066 -25.2077
171.911 121.048 -25.4565
173.064 122.41 -26.7281
173.424 121.973 -25.3373
167.561 125.594 -25.594
169.02 126.054 -26.714
168.686 126.487 -25.3274
174.264 124.656 -27.7138
174.525 125.583 -27.9441
175.049 125.302 -26.9784
174.478 126.148 -27.8367
174.421 122.994 -25.5524
174.859 124.253 -26.5966
175.355 124.001 -25.2191
172.103 126.857 -27.1434
173.713 126.857 -27.0742
170.271 127.169 -25.4015
172.14 127.69 -25.3869
173.941 127.563 -25.5735
174.855 126.421 -26.8734
175.589 127.032 -24.9845
175.983 125.444 -25.0573
167.929 119.902 -25.1232
166.032 119.639 -23.2882
164.357 120.237 -23.0148
165.026 120.51 -24.524
167.873 119.433 -23.351
169.716 119.583 -23.3298
171.03 120.281 -24.6873
171.33 120.009 -23.2521
163.929 121.495 -23.5407
164.047 123.116 -23.3284
165.095 124.007 -24.1249
165.821 125.206 -23.4332
172.574 120.739 -23.5736
174.038 121.692 -23.427
174.793 122.661 -24.1516
175.724 123.423 -23.3816
167.12 125.923 -24.1698
168.073 126.822 -23.4108
176.517 124.807 -23.4216
176.702 125.995 -24.184
177.033 125.803 -23.022
176.582 126.678 -24.1637
170.036 127.778 -23.413
171.495 128.1 -24.0192
172.848 128.298 -24.3818
174.032 128.263 -24.4021
172.338 128.606 -23.097
175.107 128.002 -24.2403
176.26 127.611 -23.3162
176.942 126.861 -22.9992
175.404 128.346 -23.0184
164.165 119.517 -21.1766
162.842 120.26 -20.8754
163.247 120.547 -22.1607
162.996 121.441 -22.3212
165.936 119.096 -21.4378
167.863 118.983 -21.4818
163.065 122.492 -22.2759
169.837 119.17 -21.3565
171.812 119.74 -21.2944
172.841 120.442 -22.0637
173.999 120.998 -21.2763
162.554 122.925 -20.9408
163.415 123.613 -21.8513
164.532 124.378 -22.6684
163.926 124.693 -21.1268
175.11 122.357 -22.6681
175.351 122.124 -21.1076
165.259 125.685 -21.4335
166.744 126.264 -22.6938
166.44 126.599 -21.1722
176.428 123.471 -21.2503
176.87 124.577 -21.9919
177.365 125.498 -21.1863
167.932 127.378 -21.328
169.45 128.073 -21.4727
171.01 128.429 -22.5885
170.739 128.669 -21.1286
176.579 127.873 -21.9491
177.246 127.153 -21.1751
175.856 128.605 -21.1971
174.016 128.688 -23.0052
172.351 129.014 -21.184
174.123 129.044 -21.2007
162.355 121.452 -20.9391
163.921 118.829 -19.1539
162.153 119.874 -18.9113
161.6 121.345 -19.2811
165.879 118.522 -19.6665
161.622 122.905 -18.9076
167.816 118.457 -19.6872
169.824 118.597 -19.2338
171.722 119.207 -19.1571
173.071 120.162 -20.5427
173.202 119.927 -18.9879
162.911 124.042 -20.379
162.533 124.33 -18.9085
174.401 120.837 -19.1352
175.582 121.903 -19.1292
176.614 123.084 -19.1149
177.176 124.365 -20.4949
177.423 124.252 -18.9252
163.842 125.48 -19.1156
164.984 126.057 -19.9208
165.941 126.873 -19.1637
167.853 127.857 -19.196
169.167 128.306 -19.9517
170.251 128.891 -19.1485
176.86 128.124 -20.4764
177.857 125.611 -18.9991
177.76 127.118 -18.9936
177.071 128.321 -18.9071
172.242 129.381 -19.1396
174.117 129.451 -19.2181
175.818 129.099 -19.0855
161.916 118.977 -16.9428
160.738 120.018 -16.6518
161.087 120.323 -17.9528
160.791 121.266 -18.0399
163.208 118.478 -17.6593
165.975 117.943 -18.2322
164.579 118.122 -18.1023
164.003 117.857 -16.7395
160.809 122.252 -17.9582
167.667 117.919 -18.2389
169.073 118.042 -18.1253
170.464 118.342 -17.6998
169.6 117.826 -16.7485
171.801 118.764 -17.0204
173.338 119.716 -17.024
174.582 120.71 -17.0639
175.719 121.771 -17.0667
160.379 122.536 -16.6771
161.132 123.524 -17.1182
162.057 124.66 -17.0573
176.755 122.911 -17.0383
177.668 124.138 -16.9239
163.289 125.696 -17.0786
164.714 126.36 -18.413
164.479 126.563 -16.8942
178.396 125.616 -16.6762
178.322 127.194 -16.6666
165.857 127.27 -17.0351
167.401 128.031 -17.0407
168.927 128.536 -18.4249
168.781 128.723 -16.8653
177.331 128.572 -16.8683
170.33 129.299 -16.9768
172.293 129.89 -16.8612
174.145 129.943 -17.2738
175.87 129.634 -16.8316
137.601 196.622 -19.1184
138.118 196.564 -19.2213
138.102 196.206 -18.3584
137.319 196.456 -18.2536
137.59 196.979 -19.1195
138.121 197.017 -19.2671
137.28 197.289 -18.213
138.633 196.629 -19.1022
138.882 196.479 -18.2107
138.648 196.983 -19.1071
138.116 197.515 -18.572
138.937 197.297 -18.1858
138.056 195.625 -16.9201
136.619 195.869 -16.518
136.386 197.223 -16.4782
139.462 195.961 -16.3708
137.428 198.016 -17.6495
138.108 198.16 -17.7582
137.099 198.193 -16.4691
138.78 198.017 -17.6327
139.751 197.253 -16.3891
139.044 198.192 -16.4347
152.476 200.393 -19.1074
153.001 200.358 -19.2628
153 199.86 -18.5654
152.183 200.078 -18.1843
152.49 200.744 -19.0983
153.001 200.806 -19.2104
152.235 200.891 -18.2034
153.525 200.392 -19.1056
153.818 200.078 -18.1836
153.511 200.744 -19.0964
153.001 201.152 -18.3337
153.766 200.89 -18.2022
153 199.218 -17.7523
152.335 199.361 -17.631
152.059 199.191 -16.4329
151.365 200.123 -16.3875
151.64 201.394 -16.3611
153.665 199.361 -17.6306
153 201.698 -16.8713
154.361 201.393 -16.3607
154.636 200.122 -16.3871
153.941 199.191 -16.4324
165.867 117.543 -16.6748
167.742 117.541 -16.6772
163.95 117.436 -14.8017
162.369 117.926 -14.7369
162.687 118.164 -16.1878
165.822 117.198 -14.8077
167.741 117.231 -14.8114
169.546 117.503 -14.8007
170.887 118.108 -16.1958
171.029 117.968 -14.6987
160.231 121.247 -16.5985
161.267 118.73 -15.0493
160.214 119.773 -14.8386
159.523 121.26 -14.7138
159.757 123.043 -14.7668
172.256 118.705 -14.8934
173.522 119.634 -14.9468
174.687 120.648 -14.9689
175.789 121.703 -14.9713
160.73 123.855 -15.6651
161.442 124.907 -15.0306
176.83 122.803 -14.9539
177.793 123.939 -14.8944
162.883 125.91 -15.1954
164.165 126.745 -14.9942
178.591 125.098 -14.7565
178.966 126.111 -15.7084
179.104 125.995 -14.4796
178.948 126.742 -15.7059
165.676 127.484 -14.9932
167.174 128.179 -15.0151
168.599 128.864 -14.9352
178.533 127.741 -14.7448
179.09 126.868 -14.4772
177.612 128.828 -14.8465
170.122 129.497 -14.9149
171.694 130.092 -14.8148
173.133 130.41 -15.8536
174.193 130.462 -15.9474
172.957 130.576 -14.5296
175.211 130.307 -15.8449
176.458 129.79 -14.7944
175.398 130.467 -14.5242
137.968 194.833 -15.8163
136.937 194.917 -15.7194
136.356 194.38 -14.4361
135.925 195.227 -15.2362
135.097 195.625 -14.4112
135.631 196.07 -15.6557
135.598 196.758 -15.6597
138.934 195.033 -15.6685
135.214 196.88 -14.4888
135.894 197.72 -14.883
136.778 198.47 -14.7861
140.001 195.428 -14.576
139.089 194.659 -14.4303
140.388 196.304 -15.5909
140.668 196.172 -14.4123
140.473 196.859 -15.5976
140.117 197.711 -14.6571
140.71 196.964 -14.4286
139.19 198.45 -14.7289
138.076 198.492 -16.4776
138.001 198.746 -14.7582
153 198.897 -16.4675
153 198.678 -14.7503
151.886 198.955 -14.7298
150.992 199.677 -14.658
154.114 198.955 -14.7296
150.409 200.412 -14.4295
150.647 200.516 -15.5969
150.73 201.064 -15.5877
155.008 199.676 -14.6577
155.354 200.516 -15.5969
155.591 200.412 -14.4289
155.271 201.064 -15.5875
150.45 201.19 -14.4116
151.095 201.9 -14.574
152.117 202.276 -15.6588
153.001 202.425 -15.7894
151.934 202.583 -14.4299
153.884 202.275 -15.6582
154.906 201.9 -14.574
155.551 201.19 -14.4112
154.067 202.583 -14.4297
163.787 117.083 -12.7556
161.84 117.71 -12.7643
160.876 118.517 -13.5464
165.775 116.877 -12.7641
159.726 119.308 -12.7518
167.739 116.988 -12.7895
169.559 117.319 -12.7934
171.113 117.869 -12.7785
172.417 118.657 -12.8263
173.616 119.6 -12.8508
159.14 120.606 -13.3577
158.505 121.359 -12.4562
158.845 121.729 -13.7006
158.917 122.596 -13.714
174.736 120.623 -12.8607
175.818 121.676 -12.862
158.545 122.962 -12.4666
159.264 123.6 -13.3461
160.273 124.252 -14.1843
159.792 124.676 -12.6709
176.86 122.752 -12.8547
177.842 123.837 -12.8313
161.377 125.684 -13.0028
162.639 126.188 -13.6879
163.63 126.907 -12.8911
178.665 124.923 -12.7803
179.175 125.936 -12.7043
165.488 127.69 -12.9238
166.999 128.313 -13.0824
168.378 128.956 -12.9035
178.634 127.929 -12.7739
179.168 126.933 -12.7029
177.753 128.958 -12.808
169.936 129.595 -12.8486
171.463 130.192 -12.798
172.852 130.677 -12.7167
176.666 129.883 -12.7868
175.497 130.565 -12.714
174.205 130.717 -14.4926
174.205 130.839 -12.6954
137.835 194.277 -14.4259
136.131 193.445 -12.4685
134.501 193.89 -12.1665
135.213 194.555 -13.782
137.79 193.722 -12.6111
139.187 194.338 -12.6623
140.212 195.183 -12.7045
140.825 196.091 -12.6749
134.159 195.519 -12.358
134.789 197.25 -12.6478
135.588 197.969 -13.4768
136.33 198.669 -12.7559
140.248 197.897 -12.745
140.838 197.022 -12.6842
139.226 198.628 -12.7666
137.877 198.952 -12.7598
153 198.566 -12.7926
151.812 198.828 -12.7834
150.851 199.51 -12.751
154.188 198.828 -12.7833
150.279 200.357 -12.6864
155.149 199.51 -12.7509
155.721 200.357 -12.6861
150.295 201.259 -12.676
150.888 202.096 -12.7077
151.834 202.761 -12.6776
155.114 202.097 -12.7078
155.706 201.259 -12.6757
154.167 202.761 -12.6776
153 202.817 -14.4268
153 203.01 -12.6711
161.888 117.156 -10.6155
160.435 117.921 -10.4808
160.587 118.234 -12.0285
163.725 116.552 -10.5578
165.769 116.432 -10.5708
167.755 116.725 -10.6831
169.584 117.181 -10.7207
171.151 117.808 -10.7296
172.468 118.635 -10.7431
173.646 119.592 -10.7516
159.324 118.927 -10.6011
158.408 120.049 -10.4385
158.763 120.179 -11.9284
174.747 120.622 -10.7549
175.821 121.673 -10.7557
157.899 121.444 -10.5303
157.901 123.026 -10.6126
158.8 124.084 -11.913
158.405 124.438 -10.4659
176.863 122.74 -10.7533
177.852 123.806 -10.7466
159.6 125.486 -10.7703
160.863 126.001 -11.4544
162.226 126.467 -12.1577
161.694 126.684 -10.5713
178.684 124.873 -10.7319
179.197 125.916 -10.7136
163.587 127.333 -10.7119
165.568 128.054 -10.7527
166.864 128.45 -11.5189
167.96 128.994 -10.7499
178.667 127.984 -10.7295
179.193 126.955 -10.7131
177.8 129.002 -10.7385
169.768 129.652 -10.7451
171.36 130.236 -10.7331
172.805 130.717 -10.714
176.729 129.915 -10.7318
175.531 130.6 -10.7139
174.203 130.882 -10.7077
135.53 192.819 -11.4854
134.713 192.957 -11.3976
134.32 192.553 -10.2136
133.872 193.281 -10.9619
133.138 193.698 -10.2096
133.548 194.087 -11.3821
133.449 194.838 -11.4387
136.61 192.937 -11.1884
135.827 192.449 -10.2933
137.829 193.213 -10.6097
133.082 194.97 -10.2773
133.571 196.042 -10.6907
134.198 197.343 -10.6364
139.272 194.108 -10.6775
140.301 195.066 -10.7029
140.889 196.054 -10.7021
135.316 198.228 -11.9956
135.095 198.441 -10.4558
140.291 197.988 -10.7079
140.887 197.048 -10.7038
139.244 198.783 -10.6804
136.351 199.105 -10.5547
137.856 199.238 -10.6004
153 198.529 -10.7387
151.789 198.785 -10.7356
150.81 199.459 -10.7251
154.211 198.785 -10.7356
150.233 200.339 -10.7087
155.191 199.459 -10.725
155.767 200.339 -10.7086
150.238 201.284 -10.7046
150.821 202.16 -10.7097
151.797 202.828 -10.7034
155.18 202.161 -10.7097
155.762 201.284 -10.7046
154.204 202.829 -10.7034
153 203.08 -10.701
161.788 116.719 -8.555809999999999
160.246 117.676 -8.58874
159.056 118.71 -8.639279999999999
163.09 116.313 -9.15761
158.064 119.907 -8.55809
165.19 116.038 -9.500579999999999
164.241 116.073 -9.49714
163.869 115.9 -8.27317
166.39 116.19 -9.16812
165.556 115.859 -8.275969999999999
167.792 116.447 -8.58114
169.63 117.084 -8.652200000000001
171.168 117.788 -8.673859999999999
172.465 118.648 -8.679220000000001
173.631 119.615 -8.683260000000001
157.269 121.469 -8.432639999999999
157.256 123.172 -8.79285
174.723 120.65 -8.6828
175.795 121.699 -8.68474
157.758 124.899 -8.414490000000001
176.835 122.763 -8.683680000000001
177.828 123.82 -8.6854
158.961 125.695 -9.22151
160.3 126.287 -9.93633
159.754 126.447 -8.418369999999999
178.662 124.879 -8.68388
179.181 125.918 -8.68427
161.588 127.05 -8.56231
163.435 127.59 -8.64072
165.138 128.16 -8.65208
166.692 128.613 -9.98728
166.559 128.711 -8.4673
178.651 127.98 -8.683450000000001
179.178 126.954 -8.684279999999999
177.789 128.991 -8.68422
168.073 129.191 -8.62088
169.753 129.708 -8.661289999999999
171.345 130.24 -8.671390000000001
172.799 130.707 -8.675940000000001
176.724 129.899 -8.680630000000001
175.529 130.586 -8.6791
174.2 130.87 -8.67717
134.199 191.951 -8.344950000000001
133.001 192.462 -8.177440000000001
133.363 192.79 -9.62032
135.696 191.983 -8.421620000000001
136.958 192.576 -9.8028
137.053 192.384 -8.36753
132.544 193.703 -8.35628
132.698 195.355 -8.48667
133.236 196.285 -9.28805
133.682 197.389 -8.61552
138.22 193.121 -8.57442
139.401 194.039 -8.64771
140.341 195.037 -8.67116
140.899 196.047 -8.679029999999999
134.829 198.662 -8.50581
140.299 198.035 -8.653829999999999
140.89 197.06 -8.67628
139.269 198.932 -8.57156
136.272 199.584 -8.26375
137.841 199.653 -8.282920000000001
153 198.543 -8.689120000000001
151.794 198.795 -8.68886
150.818 199.465 -8.68576
154.206 198.796 -8.68886
150.239 200.341 -8.68482
155.182 199.465 -8.685750000000001
155.761 200.341 -8.684839999999999
150.241 201.284 -8.683630000000001
150.822 202.16 -8.68146
151.797 202.827 -8.68055
155.18 202.16 -8.68135
155.759 201.284 -8.68371
154.203 202.827 -8.68051
153 203.078 -8.67952
163.928 115.722 -6.5236
162.557 116.055 -6.43494
162.679 116.109 -7.76575
165.476 115.696 -6.52483
166.786 115.993 -7.77349
166.88 115.958 -6.43893
161.328 116.748 -6.60949
159.951 117.644 -6.68931
158.835 118.578 -6.82401
157.852 119.641 -6.69555
168.19 116.503 -6.61874
169.73 117.144 -6.69329
171.157 117.861 -6.72486
172.396 118.741 -6.71935
173.549 119.706 -6.72792
157.046 120.836 -6.68329
156.493 121.887 -6.294
156.639 122.164 -7.45733
156.603 123.217 -7.53058
174.626 120.749 -6.71888
175.703 121.79 -6.72903
156.828 124.262 -7.44772
176.735 122.859 -6.72391
177.737 123.9 -6.74043
156.599 124.493 -6.27818
157.299 125.39 -6.61219
158.491 125.96 -7.76627
158.249 126.185 -6.42903
178.569 124.947 -6.74545
179.104 125.942 -6.76524
159.739 126.738 -6.56569
161.561 127.218 -6.64138
163.414 127.713 -6.69671
164.956 128.223 -6.81877
166.375 128.713 -6.67146
178.561 127.912 -6.74655
179.102 126.929 -6.76574
177.708 128.911 -6.7443
168.033 129.176 -6.67988
169.764 129.631 -6.69325
171.394 130.136 -6.70686
172.829 130.615 -6.73618
176.649 129.804 -6.73346
175.49 130.499 -6.74592
174.197 130.778 -6.74338
133.966 191.323 -6.34472
132.351 191.844 -6.13473
131.863 193.501 -6.33725
135.595 191.635 -6.53877
132.212 195.219 -6.5068
137.053 192.262 -6.60759
138.282 193.122 -6.67375
139.398 194.075 -6.7234
132.965 196.541 -7.86021
132.79 196.723 -6.46518
140.285 195.088 -6.74055
140.839 196.069 -6.76326
133.539 197.799 -6.75356
134.518 198.811 -6.63961
140.263 198.002 -6.72881
140.833 197.045 -6.76147
139.354 198.942 -6.67737
135.725 199.678 -6.50493
136.741 200.17 -7.32434
137.362 200.187 -7.32933
136.615 200.236 -6.2589
138.273 199.724 -6.52763
137.445 200.246 -6.26553
153 198.625 -6.76
151.832 198.871 -6.76328
150.888 199.531 -6.75925
154.168 198.871 -6.76328
150.305 200.365 -6.77218
155.112 199.531 -6.75928
155.695 200.365 -6.77232
150.306 201.261 -6.77196
150.889 202.095 -6.75845
151.834 202.754 -6.76185
155.112 202.096 -6.75817
155.694 201.261 -6.77227
154.167 202.754 -6.76173
153 202.998 -6.75877
163.935 115.868 -4.97348
162.547 116.206 -4.97513
161.256 116.991 -4.91952
165.453 115.85 -4.97526
159.609 117.909 -4.92456
166.85 116.131 -4.98202
168.141 116.79 -4.9435
169.682 117.434 -5.00575
158.675 118.576 -5.45603
157.775 119.501 -4.87914
171.039 118.095 -5.06848
172.168 119.014 -5.00868
173.337 119.933 -5.05659
157.009 120.539 -5.39414
156.597 121.468 -4.83224
174.36 121.018 -5.00201
175.478 122.013 -5.05916
156.34 123.212 -6.23175
156.41 123.187 -4.81936
156.636 124.813 -4.83883
176.464 123.119 -5.01897
177.512 124.101 -5.09548
157.124 125.563 -5.37755
157.889 126.111 -4.87962
178.309 125.148 -5.0941
178.913 126.008 -5.17728
159.651 126.621 -4.91372
161.608 127.06 -4.91521
163.712 127.662 -4.88777
164.883 128.185 -5.45857
166.012 128.478 -4.93157
178.305 127.707 -5.09819
178.912 126.862 -5.17866
177.497 128.705 -5.10886
167.951 128.891 -4.95375
169.828 129.291 -4.95813
171.586 129.796 -4.97935
172.921 130.368 -5.09245
176.425 129.539 -5.0538
175.385 130.277 -5.11829
174.192 130.529 -5.1007
133.388 190.843 -5.42688
132.605 191.002 -5.36857
132.322 190.853 -4.50858
131.862 191.362 -5.03444
131.353 191.831 -4.50699
131.509 192.11 -5.36747
131.358 192.908 -5.42232
134.393 191.018 -5.20545
133.677 190.74 -4.55458
135.458 191.447 -4.84253
131.245 193.216 -4.54493
131.538 193.973 -5.1871
131.971 195.166 -4.79086
136.931 192.305 -4.99754
138.094 193.313 -5.00078
139.216 194.25 -5.09071
132.844 197.044 -4.8688
140.044 195.28 -5.09522
140.657 196.133 -5.17834
133.448 197.935 -5.43858
134.218 198.642 -4.94113
140.045 197.814 -5.09963
140.656 196.982 -5.18004
139.239 198.779 -5.10071
135.621 199.501 -4.95681
136.576 200.12 -4.99274
138.229 199.538 -5.01849
137.42 200.126 -5.00867
153 198.847 -5.14883
151.931 199.063 -5.16868
151.092 199.726 -5.14265
154.069 199.063 -5.16868
150.475 200.431 -5.20018
154.908 199.726 -5.1427
155.525 200.431 -5.20046
150.476 201.196 -5.20028
151.093 201.901 -5.14299
151.932 202.563 -5.1693
154.908 201.901 -5.14251
155.525 201.196 -5.20093
154.068 202.563 -5.1691
153 202.777 -5.15037
163.929 116.432 -3.83186
162.697 116.581 -3.97891
161.792 117.629 -3.57355
165.453 116.419 -3.83433
159.897 118.34 -3.68281
166.69 116.534 -3.98677
167.603 117.542 -3.5954
169.53 118.13 -3.77561
158.773 118.776 -3.73451
158.614 118.593 -4.39322
170.807 118.505 -4.01425
171.589 119.654 -3.67021
172.97 120.318 -3.97025
158.171 119.846 -3.56331
157.197 120.505 -3.73674
157.013 120.396 -4.37038
173.729 121.651 -3.65332
175.096 122.388 -3.97777
156.987 121.584 -3.70398
156.891 123.165 -3.68744
156.978 124.659 -3.74622
175.821 123.729 -3.70404
177.123 124.442 -4.06279
157.042 125.643 -4.39661
157.162 125.519 -3.81575
177.683 125.659 -3.92527
178.587 126.126 -4.25772
158.043 125.748 -3.75061
159.671 126.013 -3.67172
161.665 126.323 -3.59865
163.953 126.845 -3.47068
164.835 128.095 -4.39382
164.928 127.777 -3.71716
177.684 127.182 -3.93535
178.586 126.74 -4.26048
177.127 128.351 -4.09435
166.173 127.959 -3.701
167.994 128.189 -3.66323
170 128.488 -3.6387
172.187 128.99 -3.63128
173.093 129.946 -4.06639
175.854 128.91 -3.80244
175.199 129.896 -4.11926
174.177 129.996 -3.98875
132.408 191.059 -3.6609
131.667 191.173 -3.70853
131.598 191.102 -4.16861
133.63 191.04 -3.65587
134.646 190.924 -4.27427
134.604 191.146 -3.71424
131.555 191.923 -3.65854
131.538 193.174 -3.64206
131.43 194.246 -4.2481
131.647 194.206 -3.6778
135.342 192.05 -3.6239
136.704 192.636 -3.9577
137.53 193.893 -3.72096
138.851 194.581 -4.06894
132.558 195.05 -3.53354
133.209 196.865 -3.71349
139.433 195.784 -3.9396
140.336 196.25 -4.26319
133.417 197.997 -4.41783
133.569 197.864 -3.8163
139.447 197.293 -3.96187
140.337 196.861 -4.2688
138.909 198.44 -4.13648
134.484 198.263 -3.78989
136.095 198.918 -3.81978
136.66 199.822 -4.16354
137.725 198.952 -3.9192
137.301 199.829 -4.18964
153 199.313 -4.12248
152.106 199.39 -4.23989
151.603 200.205 -4.07648
153.894 199.39 -4.23987
150.768 200.548 -4.31401
154.397 200.205 -4.07645
155.232 200.548 -4.31441
150.768 201.079 -4.31426
151.604 201.422 -4.07744
152.107 202.236 -4.24127
154.397 201.422 -4.07701
155.232 201.079 -4.31525
153.893 202.237 -4.24104
153 202.312 -4.12498
163.739 117.589 -3.16061
165.645 117.571 -3.16475
161.661 119.342 -2.84167
159.762 119.605 -3.06829
163.676 119.268 -2.66807
165.714 119.26 -2.66692
167.755 119.306 -2.84517
169.745 119.511 -3.09992
158.061 121.413 -3.11443
159.683 121.297 -2.73424
161.608 121.211 -2.54613
163.659 121.187 -2.44876
165.744 121.192 -2.43316
167.829 121.225 -2.50552
169.882 121.311 -2.67187
171.859 121.426 -3.03153
158.007 123.125 -3.03461
159.652 123.114 -2.69952
161.597 123.129 -2.54436
163.671 123.172 -2.46061
165.767 123.197 -2.40729
167.866 123.225 -2.41091
169.953 123.273 -2.48561
172.003 123.351 -2.67955
173.975 123.487 -3.0621
158.024 124.69 -3.2223
159.658 124.78 -2.97394
161.62 124.911 -2.84912
163.736 125.085 -2.74201
165.816 125.133 -2.58809
167.896 125.177 -2.52137
169.989 125.238 -2.52589
172.072 125.319 -2.60581
174.093 125.394 -2.81092
175.993 125.5 -3.24926
165.937 126.823 -3.04097
167.942 126.907 -2.90222
170.009 127.044 -2.86182
172.111 127.221 -2.86815
174.125 127.26 -2.92635
176.003 127.264 -3.28773
174.121 128.913 -3.40306
132.457 191.976 -3.2783
133.846 192.02 -3.22154
132.51 193.412 -3.19913
134.027 193.56 -2.97727
135.752 193.682 -3.15105
134.168 195.315 -3.01414
135.949 195.482 -2.97664
137.765 195.617 -3.30711
134.4 197.033 -3.24565
136.06 197.279 -3.16577
137.818 197.349 -3.38324
153 200.222 -3.759
153 201.404 -3.76033
