917
143921.47255681062 163276.34113679492 -3673.276905796663
158950.2883487 165326.97167623808 0.0
157457.9699003415 165535.52716018708 -2386.437864791391
145295.09263293789 167404.6989078608 -4396.34822068412
144676.0736908502 168268.229416227 -3427.651569051069
154054.129285598 167002.0886863083 -4596.40040304589
155013.9228712658 166805.806245383 -2303.902916263783
151091.83772751002 168715.72845691032 -5167.1537650307655
152428.1633954444 168215.8006843906 -2473.901745351371
153602.44531644988 167959.4856152915 0.0
155804.1277687266 169035.6251570452 0.0
156257.50698846162 166605.23771292903 0.0
158600.110905428 168420.3664991236 0.0
166337.1240700821 117735.8616269371 -10357.58166189364
164118.6307746834 117807.1504589461 -8365.910698679678
163883.2828155593 119336.0598745515 -10915.537173678971
171167.40205282328 116415.4184450486 -11619.50906445027
168891.70408416318 116347.85719119551 -9693.038128065153
171524.8585972407 115171.8213577726 -8932.330102183827
168570.9709298078 117697.6807570009 -12332.9548038766
171067.6058738286 118712.0819793642 -9533.832515054466
166629.4610005979 116321.1036905485 -7748.62768822809
164436.2311050429 116393.77777016211 -5654.263194983183
162079.44772530228 117995.87475975249 -6581.070803006859
168076.4906277916 117809.6810649152 -5560.672582575329
169256.8612609916 115128.2416187918 -6995.823320498388
172007.9343103061 114214.5794421199 -6374.745380117567
172935.6462257404 116181.62489167991 -5423.650973002414
168445.5745617025 119006.8539436467 -8135.906805785664
170631.9775207228 117462.8823296393 -6828.292479813464
161606.08020385331 121139.9692494097 -11401.71928090581
164432.151702332 122832.2399721033 -10297.615850653941
160880.4670302862 127317.669727422 -11961.13137791358
162601.2778600293 125011.4034064385 -11184.37885042776
160210.2036557407 125707.0151203785 -9551.687925417727
171515.9619998695 120015.9745949659 -12183.78707188081
168940.9101008361 120371.1488353046 -10758.223587212291
166925.1922210177 122271.59223216781 -11828.12397244416
161770.37333567528 119491.96036578719 -8922.543445573781
161989.1720648473 123465.7896488453 -8712.902107839784
161091.8567377995 122464.57139634261 -6551.8462949037585
165893.8701143913 119475.27574846281 -6671.824386436041
163714.6502443958 119792.3057104988 -5226.046199083766
166377.7599834167 120815.3155593851 -9287.984894528221
163521.4795871373 121321.7149551008 -7322.027852370196
176562.8184131456 114555.6540269336 -9897.685428615796
179312.7113175545 113931.1409106574 -8924.952038608382
178903.6414783715 114914.2301246646 -11711.407731801399
173841.8889724526 115381.3818947546 -10798.69207665476
184429.6279888441 114075.9883370509 -9630.043462928857
186608.62981655312 114047.4364317445 -9114.462671500516
186445.7350018796 114669.22509664179 -11266.56587752824
181664.0961800365 114419.3290797286 -10694.5897361522
179570.2945615245 113145.98327000659 -6110.530807425001
174644.4581331871 113383.6371492724 -5328.525727626267
174262.5815533069 114295.5436491514 -8105.583580559692
176979.1170182351 113638.068999881 -7089.877558349602
182176.3989349849 113473.9028227176 -7509.70586575776
185313.15227906647 113455.13636287091 -7170.682819906765
183705.7574141974 112892.0649827186 -5344.046365906239
185808.871046813 115456.0659550207 -5126.86765891027
178777.3696508013 117449.6711505808 -10481.04408926823
176032.1539315478 117295.6213873361 -9333.896052701082
176481.9753481025 118442.7731711841 -12020.00430908007
173745.8439189244 118515.7845714654 -10830.327034534801
183884.1858777981 117132.8254079417 -9840.784616309027
181535.6308147993 117756.4243454674 -11564.34225143909
186649.71981896638 117768.5309018026 -10854.34841374778
178365.87749311412 116344.499357742 -7745.142262618149
175621.1180689368 116193.3112779393 -6596.893487131235
173306.7603340886 117309.5714338673 -8126.860805145522
183471.1263468888 116072.5160337794 -7186.522298322395
180667.7630625397 115630.5829649738 -6195.585981392299
181124.0677718377 116648.8910237067 -8829.452329995487
186228.6463298969 116636.7655522649 -8095.911619269716
165873.88811522227 114583.85595599179 -2563.3277052170497
168721.8565588081 113661.39622962249 -2329.214393024094
167496.0369863337 114955.2110935188 -4975.926041740286
169619.47711365702 115419.20790463731 -1829.2278584635399
172680.83293353042 113389.5018862055 -4246.619963996179
171542.3151565735 112990.5277761043 -2262.3558082844493
170150.8899666355 114045.692405647 -4609.991127926969
172497.71917218898 114948.1383940107 -2396.103872562392
164278.77454462528 114186.84985126581 0.0
167127.01841769912 113304.8829893702 0.0
161488.0854339724 115247.6777497773 0.0
167982.61731865592 115079.96928745181 0.0
166186.4496551154 114702.9808742118 0.0
170019.9442835268 112572.95199646779 0.0
172964.98301572358 112083.0046437478 0.0
171904.8626340541 113169.8446852176 0.0
168996.20187028818 113812.8154507939 0.0
170855.2274612709 114293.4575298859 0.0
162081.7545669245 116979.2798206721 -4413.514711990763
160660.5255291108 116776.3696336226 -2419.5049152067154
163173.60038203798 115616.3726538774 -2583.227326192469
160288.456562243 118031.9321856222 -4641.126776128332
161409.1335895182 120854.73011238141 -4608.8192875402565
161801.4414460033 119164.45969885749 -2447.674553733401
170190.8732310822 116361.71067775879 -4215.956717160633
167317.21439401552 116609.8148575838 -2678.6287228504652
165843.7980473665 118235.6072014975 -4535.374574102653
160654.2977212023 116942.1128756325 0.0
162462.5255235141 117315.8035304662 0.0
159854.0799620198 118757.4164769655 0.0
163374.5846212395 115737.826671731 0.0
165178.66825302973 116087.9581869866 0.0
164289.8204140703 117739.8601733714 -2315.724764009161
180023.31839540802 112272.4562036495 -2872.31844041061
177422.03460858308 112148.4448422103 -1918.594863669694
177289.7429245262 112841.63341535149 -4410.366625227301
174555.7181731608 112584.8584219315 -2547.7837386457536
183369.67708439683 112139.6262650749 -2509.067868499574
186342.3417832171 112118.98267888461 -1893.0775685014928
181486.50231887752 112764.7748941359 -4810.275782893407
186284.6544999182 112792.8233662477 -4431.25358668114
175929.0893664702 111746.4816736056 0.0
178905.6872890043 111526.2721948348 0.0
174852.610941851 112735.1633425878 0.0
177448.8911044719 112484.5808174794 0.0
180428.1086515976 112341.2370445944 0.0
178201.0309936379 112655.2638736357 0.0
181890.9571421268 111487.991042617 0.0
184874.68971845 111551.2572463842 0.0
181181.06902353308 112576.38150863041 0.0
183412.4980131113 112355.60684319 0.0
184162.21679641522 112641.65379514059 0.0
186394.5438807411 112485.8700642434 0.0
187139.05923526452 112821.31354432189 0.0
179995.3324381687 114846.782102767 -4179.883729364962
178091.57981812189 114288.0957689819 -2498.610794878882
177960.24106462992 115287.9547240541 -4989.287090345888
175425.1722843355 115147.6934259738 -4015.176135369911
184270.26172455068 114318.4843161744 -2477.11346052599
187035.97639710488 114494.4064962925 -2383.903451731405
181304.52224628918 114128.4143202295 -2273.12277862172
182589.5689167723 115053.3187617033 -4610.667674978078
173779.2957756951 113729.9645707688 0.0
176737.0756095151 113381.20248222881 0.0
175332.7781231316 114188.18665056619 -1677.029153162386
179712.4699715602 113229.0 0.0
182692.7403288478 113247.2979473102 0.0
185668.93912525199 113412.45314367821 0.0
165903.5114460863 160096.5547549688 -10989.62492405153
167207.5752263009 160038.360394375 -8317.573989783952
163142.1803117179 161252.7138444608 -11275.6692134162
164419.05404716372 161037.2449375595 -8592.832543660712
174300.46857835312 157223.5412052396 -10183.780772735141
168696.3657542544 159115.8695976093 -10717.590266989531
171513.0892909779 158209.7379889651 -10456.62895314007
170014.4816176714 159108.5633537232 -8054.672503281607
165710.2782909681 161082.9343877114 -6285.681437732905
168740.0360624805 160165.2180822485 -5440.5641251506895
175536.60354509798 156907.8393971713 -7535.0790249198635
174480.766650878 157539.15641417418 -5234.772578840067
172818.7757246898 158102.48219216542 -7813.661549700179
171676.4626824301 159037.8573125296 -5459.51964306557
161648.02706483018 162222.8531616273 -8892.270646646166
160492.2940310955 162602.7833299768 -11628.84783458378
175606.5311413064 165393.2729070939 -12418.355612042691
174115.8100761392 166274.80472867278 -10213.39530809576
171841.1306856415 168159.40349657502 -10296.18718888265
162920.24815515152 162149.286767941 -6511.056425164675
160193.3689596006 163332.670579063 -6756.100626922068
174075.76848758338 166175.4812020988 -7553.259142964901
172880.5473601486 167060.2056106339 -5250.300326905282
175169.9239492261 165185.2676910793 -5025.7014866385225
171986.4266872052 167933.1263367337 -7671.326575004176
170679.7968200616 169088.0094091012 -5399.53222105473
181475.5389761354 154831.6202766398 -12063.1649288954
179918.8747304721 155317.4781967358 -9646.328347639785
178643.667024247 155491.2715385839 -12225.24185742515
177053.69069921822 156150.807896816 -9896.665798823191
184392.345918615 154582.24408122772 -11790.57112924433
187406.03538912212 154548.6248441436 -11452.13807639167
182825.6546239237 154938.08909393722 -9364.965672551985
185769.592368288 154830.5580887318 -9075.780199631148
181233.6053214422 155357.196058152 -7067.130061635592
180076.03434067458 155762.5621316603 -4828.427957617554
178298.4652543751 155813.70795042 -7300.5064456918835
177040.7512032816 156188.7341569365 -5028.037135779193
187092.9516545024 155181.5836504746 -6497.3357312090075
184174.1244418414 155186.00174577572 -6884.187360432815
178135.92400684292 163883.6781408428 -12121.242273556969
178752.0725788724 163138.9442741292 -9638.490200395436
176191.9430198985 164780.6140750255 -9930.56718202947
182800.6931641973 161643.92776656852 -11795.93297877213
181432.1426597212 161761.31435243032 -9300.945033955712
184580.2025923804 161179.9562333773 -10149.80042837508
180464.300418646 162473.1616616437 -11869.73016002031
179058.543973741 162634.6067647702 -7168.352551066926
181273.67021735612 161373.2135736956 -6826.401394535581
179889.9490031985 161806.3326589113 -4911.969119478348
176709.3614824125 164208.5404463169 -7419.609974528825
177477.7542004633 163439.1357683946 -4967.93554667009
184995.5542557729 160547.678828928 -5147.134469373322
182286.0605459716 160673.8664468908 -4902.460348495955
186420.1846805521 160935.34206934398 -7790.2619288717115
183431.183681713 160889.2045271893 -7371.103163253662
164274.5731703757 162060.38858095597 -4435.931528260905
165646.778342485 161993.3064977379 -2403.839870835335
161458.709651494 163222.4800898241 -4529.72769689191
162887.5626388071 163089.51864235662 -2371.4064746814734
170988.5579830952 159781.5846605529 -2597.348219684144
173260.6017456602 158269.2203020285 -2570.142101593152
166800.7519776429 161150.7653250366 -4131.385214485027
168376.7253423347 160933.32562615088 -2535.577724727945
167212.78112937632 161910.0549856409 0.0
164440.24167045963 163004.40714808888 0.0
169856.2231569277 160587.12829920632 0.0
172246.72673374182 158806.5306007231 0.0
169641.03316809182 163274.2257471109 0.0
172143.9520359365 161478.4071213381 0.0
160120.5521535353 164272.0296245285 -2424.568445993999
173977.67683806858 166022.3907691392 -2478.989990343449
171738.7143208402 168045.3773619601 -2603.705998499164
161683.4265238574 164137.5206050212 0.0
163798.75084059028 165404.2120296899 0.0
161426.7726047306 167061.5352454137 0.0
160784.35568605078 169153.3614100653 0.0
164703.82008389378 167727.2278017991 0.0
166739.4933200103 165090.3693481268 0.0
172165.2744747575 164166.4432151003 0.0
169916.2610032641 166161.14007455992 0.0
167721.14482856527 168355.0944673473 0.0
172731.981039615 167016.75970857762 0.0
170597.9456818107 169076.9689062576 0.0
181778.854553053 155969.71095390402 -2416.4833246534768
178691.2852145995 156221.068175514 -2336.0601352373437
175918.8056670984 156533.6578116169 -2463.336762989226
182917.5566421994 155553.0352292671 -4737.951978976363
185679.0650853656 155470.4532521749 -4670.630406837328
187527.15894122492 155799.7900396665 -2470.731418976026
184654.10091248172 155861.0009334536 -2283.7037134543066
174637.23031055598 157025.93290224 0.0
177553.52438559852 156633.86166745413 0.0
180526.0090656626 156412.2966288998 0.0
179732.8816501403 158631.69852218518 0.0
183501.722561342 156242.5796813589 0.0
186480.5390754193 156149.9777842921 0.0
184416.5333901403 158080.5642924498 0.0
182098.79887497518 157816.60267827142 0.0
187386.8068775236 158261.18338167088 0.0
178488.9638364678 162347.7460381862 -2522.75222540828
180853.9246587457 160665.5396140766 -2495.39063219575
176231.0525225642 164150.02159707772 -2515.955817389814
183511.1941628567 160086.1017792391 -2511.13810934701
186425.201608231 160512.4941879196 -2598.877177393325
174222.946543647 159823.2224945858 0.0
176680.9632615563 159787.85754380742 0.0
174934.0234553177 165029.34771380152 0.0
174554.0470231924 162264.3418624815 0.0
177187.4473643996 163100.4111387425 0.0
182060.6309237935 159924.75031828182 0.0
184970.7020277885 160088.29191082422 0.0
179477.36338925548 161214.82229639718 0.0
152055.8233572301 174546.6476282292 -26707.626206707493
152129.9655262654 171573.766887797 -26486.05782347714
152081.2688252818 180097.11535795752 -27138.53804226594
152078.3068009538 177301.29133974502 -27035.67234079026
153031.1086274295 175846.26010425983 -29259.575194788842
153068.1686244026 172926.482773768 -28968.146284202638
153247.5877531783 169910.45663986902 -28703.54078117225
152947.2220059422 178785.04812987542 -29371.1628335794
152818.5620487831 181971.49728499432 -29080.44057687486
150148.3105084481 171851.2138962082 -21794.76542656617
150086.90337291462 174737.7538057807 -21696.40778910594
150352.6022421362 177387.9156415606 -22399.88945552291
150068.9302427026 179799.42392350198 -21589.632273888503
151094.9167714449 176213.2367664206 -24434.94884574863
151126.02845460857 173230.9336843194 -24215.2933075435
151053.87709137 170303.9475724703 -23963.86930139823
151127.1710006092 179398.289056773 -24549.65851822286
150684.54951943058 182326.7252817931 -23078.11254134159
152238.30144627788 184839.02473065912 -27309.282304634413
151618.2011246747 182413.1323610339 -25884.20319390905
151854.5690810654 187415.2343913392 -25807.02350231108
152371.32607006398 192528.01844641162 -25685.83679263431
152900.1062832437 187390.6792869945 -28686.57955834119
152582.6350674943 189948.9603218988 -27207.64289056334
153378.2378500683 192499.9733396323 -28496.61636631494
153227.3433493239 195056.8485199754 -27004.59693764336
151235.0774041945 184826.9387288966 -24458.75653084654
150326.2905677524 184863.755606635 -21652.22961831418
150984.60672383898 187414.7201164506 -23045.08880853425
150764.5610460944 189986.8011787509 -21512.75714075819
151655.9684189932 189975.9930013217 -24440.368289245802
151510.4800396582 192554.99120844182 -22875.59383946186
152302.6330635193 195074.2270105845 -24209.26717694412
151421.16332444642 195101.5362712376 -21337.78058805341
162978.97037009988 186578.8786423355 -24666.962992454402
163408.25808146741 188042.6741360679 -27133.10670042971
163553.8152414758 183701.10492237489 -24561.48187584719
163839.9329672173 185214.3267464469 -27097.27383993412
162742.6778560384 185127.90169319708 -22126.43329478745
162245.822149027 188018.1493075686 -22216.1563819693
163466.3608121759 182303.0313910293 -22000.79108348653
162409.2439550098 192408.11738417612 -24745.28141948
162344.4636518093 195335.0044685567 -24735.700405429772
163171.1697797224 190966.6102561257 -27179.743757174852
163076.3285751446 193893.16691868438 -27200.52799412806
161925.9424247863 190928.8869577857 -22266.8046123269
161752.25010483168 193848.6011406081 -22283.998027557172
162620.19197898122 189468.8986424344 -24728.415141581292
148416.66013044678 171899.8669555418 -17553.77688122999
148950.2522066932 174763.33492461918 -18778.101321644448
148533.3134858536 177163.32363465152 -17422.30541651448
149380.34660177582 172687.50916167558 -19837.363400848448
149129.9176710632 170579.2037408063 -19413.03805091578
149518.7096490522 177191.7461413794 -20127.98420511719
149130.9823857365 179741.14715225558 -18876.84384945172
146555.3288427515 169494.5020220991 -13395.46827932601
147246.6670907595 172075.0928796309 -14650.55919326936
146211.36823727432 172100.02103048522 -12061.11929188125
146912.3458795982 174592.71988060352 -13258.902331967009
147937.8697925747 174599.56510319692 -16040.24630603019
147641.26568672608 169408.46715974298 -15867.84169214779
147533.306737854 177161.1947666683 -14641.890532334299
148188.6368758537 179727.3428133174 -16012.40878027729
147281.7327040952 179743.5613484199 -13171.33434766471
149732.61980106382 182276.3449488859 -20229.70685518737
148787.087101418 182296.2597023625 -17402.60274969894
149424.67746385318 184867.51654756072 -18793.12945772449
149187.63097327392 187431.00558629478 -17329.4769942957
149775.6425548067 192568.5169168559 -17154.66907976068
150074.6023058134 187426.5440830784 -20152.72327007119
149902.24040102412 189997.4809169172 -18680.587575041092
150632.086957242 192555.293172274 -20008.826874512848
150558.3887036481 195115.0375473318 -18487.51470838421
147886.24291392698 182313.7553760644 -14558.37052675771
148561.9172980126 184870.2197026153 -15951.270245330401
147733.8976731701 184887.7259557389 -13086.6449452414
148402.3928609741 187403.2513191439 -14484.29147464444
148296.3556269452 190001.0552194448 -12931.1091772422
149077.53314320478 189995.71573729618 -15815.81983260841
149012.99802487032 192569.463887057 -14269.02752872085
149754.3850380271 195118.4102096006 -15619.277237821761
149003.09073660508 195124.1607783868 -12759.2437226617
162598.66662885158 183698.2647239273 -19566.30223467719
162564.09014765898 182298.40051173882 -16982.00727335638
161949.7455303091 186558.7331894197 -19690.77595957497
161743.67776436158 185116.4037770964 -17140.67961023934
163644.6032271421 179570.0268315737 -16778.91179985846
163495.9359277457 180903.6609363014 -19396.56290986229
161780.3211378751 183740.5023227327 -14541.988270215279
161907.9020293191 182389.6825825336 -11929.92512079219
161076.1651065552 186593.51807695298 -14685.34925005522
161045.4784469409 185199.085133142 -12095.296291617049
162962.94276930898 179940.41441731658 -12216.10261804321
162748.1633854454 180982.51636298452 -14538.16215068804
160808.6718607928 190895.8655563148 -17328.050673314578
160587.6330351905 193806.29520823958 -17361.36674378758
161507.64372247242 189455.7617368044 -19773.68937840787
161180.7439246757 187992.1201153583 -17258.556300288208
161146.38238223238 195292.5854420682 -19886.50611473298
161253.5947863382 192366.0219995982 -19854.97488073765
159999.52621238428 190935.9886178816 -12382.4094654363
160077.79911441889 195252.8137873181 -14873.39869932516
159741.9236702262 193792.955039214 -12434.02039662888
160580.5054284517 189503.47953144772 -14797.10752970943
160434.50814760372 188044.08008476428 -12308.4224761765
160267.3614940686 192348.8100493815 -14897.539281584759
154157.5173266943 197574.5586226156 -28293.24936114433
153157.45715761848 197618.9457048396 -25489.51053970162
154173.29521893832 200118.6820091774 -26747.21275557159
154262.3440891325 202649.8161046644 -25167.251545996278
155135.73923591428 200052.9467836433 -29375.09941304365
155246.76148875532 202596.5444914908 -27878.093287789452
152285.29548510478 197634.0718616036 -22643.344284374423
151415.843262658 197648.8703069849 -19796.34668419249
152337.27960360242 200169.3436917247 -21084.651959719347
153234.52989073668 200148.6503154843 -23922.28001636556
153347.49572802742 202660.00594905732 -22367.57481641262
156347.92076263038 204978.8183595541 -28806.103041322298
155426.64431026962 205172.37091999102 -26231.91003114951
156796.9824587132 207538.672078553 -27413.47823490622
155804.5631847003 207554.15491063162 -24752.39299936827
158252.8871286995 209847.4793089513 -28553.83211537218
157191.7003923749 209907.8665555284 -25851.37017830534
157822.42631639208 212231.16588966938 -24161.94844012044
154501.1970001041 205128.0236968397 -23556.97952153454
153596.94110768792 205137.15275004192 -20831.396991158817
154828.4301186446 207533.7024363887 -22003.01176947407
155334.9396713431 209864.7958418642 -20532.4978218411
156273.7306315344 209931.1030519675 -23182.98130101684
156837.3490997594 212238.9607038877 -21413.59816870877
157591.76801336888 214368.3301886516 -19820.72777114604
162454.88367453648 198253.1478718668 -24720.95408415538
162772.7570608876 201171.05117674818 -24543.96344155943
163178.12022428858 196818.8870378787 -27315.481062001432
163404.8021045371 199727.3448131235 -27197.247964089118
163803.3058700994 202608.6021980801 -26844.45950040023
163337.5588781345 203943.5906443262 -24354.81080162629
161750.82692735942 196757.5016337576 -22286.79881714412
161919.3676663067 199658.4374087335 -22174.557318452942
162325.6945026355 202578.7734776132 -22049.78339513579
162994.990891932 205385.5468018285 -21876.125338647948
162861.9569601462 206710.925058605 -20045.21676800999
158821.7037250737 212177.7976845598 -26897.61690879475
160549.7794994834 214359.7857129862 -27907.99922264311
159517.5410288647 214443.1248330666 -25148.37185217316
162385.0782120482 216489.7967365984 -28876.157842932218
161345.7359225354 216619.34523953788 -26168.47235863936
163301.9255138001 218618.2721139083 -27017.33725337633
158509.9273715192 214364.87643177778 -22460.773115329728
160417.0979349023 216617.6924046314 -23523.47860539384
159477.1092030783 216589.4859802578 -20834.03981689012
162327.27851605442 218683.3240433954 -24269.7348781503
161412.6013133416 218675.34741930562 -21653.32165352009
163369.9766351235 220589.6004031809 -22408.214020439347
151444.3334299477 200175.97137136362 -18271.116493903493
150551.4258632444 197665.88398207238 -16923.26671341467
151566.8615875013 202703.80499337072 -16655.03163025159
152459.2159801663 202681.29261807352 -19545.921732034687
152641.4554652791 205160.534246621 -17917.01970621055
149788.35928386918 197650.53517704748 -14102.33302989821
149830.74457784972 200201.9546117649 -12510.699828893341
150594.9494215469 200158.0971642711 -15349.92825977129
150722.8399008975 202684.556346011 -13739.42559730105
151739.1955061376 205213.9785458246 -15069.73638725451
150851.0294598846 205217.6650574882 -12176.70635850245
153785.9760470179 207317.59036547292 -19206.43746320377
152798.845977178 207200.5965862566 -16310.073455766262
154327.7460091525 209667.6676422686 -17861.70108225772
155872.128626455 212088.7056963703 -18954.55070694334
154866.0704511575 211917.2860855331 -16349.735999820212
156576.4728583243 214215.9446770319 -17163.16132224419
151914.1043473284 207221.5631942962 -13531.59530107905
153337.972729493 209587.3103425281 -15113.736808381549
152407.4857867003 209648.5300042641 -12353.81239693237
153919.18945948168 211828.396457561 -13616.91834616818
155589.9659935757 214083.6966586964 -14485.70817545641
157432.00314331902 216298.941053479 -15320.4165442319
156461.5362206051 216162.9993109478 -12549.81977648772
161150.2330102014 198072.1054084552 -19706.98198615331
160514.5254239843 196727.58679897708 -17351.82080632401
160598.77611817958 199605.0742680911 -17255.57549340026
161417.330439185 201125.48798230672 -19696.89365158107
160906.4371452402 202368.5272659985 -17277.552019903178
161263.0639104534 204591.8172630662 -16946.54984174385
161880.84816873271 204127.8537012545 -19453.86133626991
162074.5611077513 206465.6959507944 -17829.83516452714
163410.2582079567 208659.47939286032 -19082.73434872715
162479.752954868 208503.6313656353 -16390.47175018992
160064.332813608 198155.8281956689 -14891.23324709978
159612.82481014062 196694.69912444442 -12382.732315885161
159647.0150499131 199606.4127478039 -12356.48468214832
160223.6543145336 201009.66978878502 -14819.23470646038
159820.6390786747 202832.1067837114 -12074.62505872773
160626.2533126296 203808.2682319669 -14922.477099408568
160450.20068568952 205767.4886916821 -12755.68451575518
161351.800266268 206273.18907838798 -15480.59687429471
161545.9256677951 208250.60117082403 -13583.16792376991
158451.1259942117 216469.5004725816 -18103.55199158546
160386.0676596311 218563.69528019932 -18955.425802973197
159361.2251773052 218418.5077431963 -16186.63775837475
162454.5536365415 220580.567008598 -19692.01375583768
161436.52485679582 220465.8877145033 -16920.495531728728
163566.7924840971 222401.01222313682 -17692.466852072583
158395.3545246423 218286.8013698261 -13386.6466861625
160448.4201762959 220269.3322520518 -14139.036769059381
161627.68179542333 222061.3005687269 -12079.58830570188
163056.327049399 210595.8679832707 -14481.682473417839
163806.4438915714 212592.0831426859 -12548.57890348433
162563.1943308843 222217.1316336134 -14898.60522009787
163850.6786445805 223897.65320712788 -12809.257672274249
164759.9263213559 183918.321790979 -29358.652660969798
165123.6582343624 181691.64052628243 -28550.52674808167
164329.1778376698 186605.8848006334 -29520.17655629049
166480.01239613522 177789.70214897647 -27786.315002192558
165220.8697688344 180194.40194737932 -26949.58968767428
164371.6691199805 180975.976992946 -24406.154231787
164318.3427591151 182739.17305113177 -26724.500850461558
166735.461658148 175702.3071244656 -23445.128154711612
165645.2647406673 178062.1196819999 -24589.539131554273
164886.5421942381 204048.1398445323 -28581.364785052418
164635.1091468761 205693.7813619822 -26471.28040068952
166113.63952868088 206508.3752716787 -29265.40455429926
166535.0772176968 208906.9233804291 -27383.33814268042
163960.7256666193 206255.0574950557 -23896.99505355355
165143.6024920941 208260.9067047807 -24707.03355061424
166026.5562237557 210931.6093901676 -22811.54839357358
168722.1132981439 173384.9737714857 -26500.347307392458
167949.55670162447 175399.089497533 -28525.91583516431
170507.9653570036 171183.2135721914 -27189.23670021008
169626.0148237285 173093.1292493227 -29270.36081479335
168075.7824761635 173738.0147618475 -23938.015975472532
167165.51708743192 175621.2376274195 -25850.75114579831
171641.52968972782 169609.47061273397 -25126.76070359328
170704.205239759 170190.29681096278 -22989.49492051765
169716.5568539895 171631.5562099459 -24520.834708314
168278.9291817958 211094.5016920403 -28191.66626180015
167050.2835041733 210987.6305538345 -25561.17338854009
164657.380675086 178207.6284425434 -19183.31834292777
164495.5631769524 179520.4551429419 -21873.20645197823
166074.704292787 175637.3035460093 -18932.57503240114
165744.1005946554 176892.78714862352 -21499.14826461428
164975.8478893702 176954.44878455088 -16537.60289392719
164469.10353954602 177096.11321446538 -12203.82949005219
163985.8868546918 178363.9422912721 -14533.342419701221
166085.404750514 174627.28159417099 -12078.520676861799
165472.633463933 175808.178266454 -14264.04881854067
164124.81537104672 208168.27691296398 -21909.99535151908
164994.8703759444 210892.5311493367 -20009.63370208352
163970.38711887048 210783.1411151562 -17261.891557961728
164761.8019868413 212819.3560994329 -15309.97270496833
165729.5311068745 212979.9550022987 -18075.63759516481
169499.0819584757 170885.4250355827 -18422.48561120974
169086.4749000245 171903.97447891248 -21710.568389053802
170897.3101924458 169702.1300873007 -20660.970451925772
168980.2239736045 171108.6349800331 -13178.39613991224
170243.8298061019 169935.9149368398 -15670.48609294996
167253.7781055414 174372.8344249058 -21319.16799338104
167688.8158051238 173187.1295288867 -18656.5059278825
167140.447423864 173406.7047442986 -13929.98732744991
166528.1405626093 174464.33027838758 -16267.67481920217
168285.7519023106 172116.73124735712 -15976.35669799644
170218.8348129451 213181.0773864952 -28978.050065598432
168967.0369213577 213221.8642679812 -26281.30295847938
165377.80798270673 220574.79229859688 -27899.76957215725
164359.3085708771 220634.6803550342 -25174.91903237952
171014.5255673085 215216.2437672912 -27002.5389099758
173175.7244453214 217077.4817781602 -27612.64804976619
171944.3833476232 217119.5837090209 -24971.40424551157
175496.1223400218 218804.4459603434 -28163.58431636229
174178.19816410769 218878.72930036302 -25566.02810713093
167870.6314425689 213156.16719792478 -23553.87522702414
166795.0521774416 213071.069811451 -20816.30615871846
169845.48676450938 215205.8183083147 -24295.505615214508
168749.7261232183 215138.70388620818 -21566.33004040856
170825.943978056 217063.45891159133 -22270.78486252893
173035.4011533859 218838.6510592091 -22936.00685218673
175356.872756869 220448.7932239267 -23421.58362549145
174232.32417274552 220448.2045762621 -20841.49644435677
167550.5942560763 222427.93727689018 -28734.86648743669
166507.8648445226 222537.9497488963 -25997.59999271861
169852.45784902488 224132.8751104215 -29479.290513948177
168810.0400312528 224232.5245538318 -26711.831748137432
171211.7774119981 225802.6157207938 -27425.23414254715
173735.8689677337 227224.747269021 -28103.877783707318
172666.23882153162 227334.162233101 -25329.2950206489
175317.3907882972 228534.470489089 -25949.81345938532
165547.65292875702 222513.3529214345 -23291.45405474546
166795.5829308755 224200.0870477933 -21226.77332228821
167828.48933889202 224246.0302263177 -24030.77181076959
169173.1690767278 225851.5846819696 -21911.73333617104
170170.0306201752 225867.7824302184 -24654.21845928208
174262.4142638803 228566.4822652153 -23193.8047742691
171656.6626931206 227351.73101415602 -22530.3126533774
177961.5848852169 220345.8312504005 -28634.835980869968
176617.2800728865 220489.717061495 -26048.35252246016
180570.0672048385 221659.50136692871 -29019.07546637489
179191.848652684 221852.8663135893 -26422.43027942565
185164.0520064369 223546.5801576178 -28230.13591476305
182304.4932264484 223043.3135913583 -26952.5032631567
187211.24880180822 224405.0358408195 -26327.61270265927
184848.58948775392 224059.6352150446 -25968.78327625604
177885.3513399327 221883.0199514529 -23838.13759687942
176617.33243708222 221873.4442725517 -21178.81200747267
180653.4224517169 223079.3651774075 -24237.589555317492
179280.8710655187 223069.5641656765 -21716.57741884546
183365.2870219214 223991.6489544968 -24231.2510966682
181916.71032473742 223992.3217297677 -21978.83897959148
186200.7097475748 224731.7979311989 -23508.43625529443
184171.0393542638 224543.845495505 -22249.65688064125
179094.8934331513 229375.49518594448 -29287.77702950216
176399.49481823522 228400.7309249641 -28719.29558074869
180830.1580751966 230408.4252692438 -27078.805985392828
178053.692852045 229559.29874020358 -26520.52754481686
183520.5205581123 230996.6304583553 -27443.221388921662
186561.5805248158 231492.33286872602 -28001.35195043325
185537.9085002535 231664.83175239598 -25330.07084427117
176992.8333284357 229634.9057123314 -23748.961984308833
175942.1222507106 229669.84050773518 -20964.61660536404
179780.0469398823 230522.301832472 -24305.241751261237
178745.9539844279 230574.0999177299 -21548.70135660906
182645.5209171579 231152.8819377049 -24823.69648365445
181589.5144215658 231200.2177466878 -22037.28559227511
187392.34461128167 232116.276694131 -23040.261666257633
184480.11936281231 231719.18735361213 -22543.79292082238
167654.8345046187 215070.3193671213 -18836.21953317985
169728.797186964 217036.6187012698 -19540.680009295582
168642.4308550386 216959.1846463006 -16805.79604682194
164570.9860263743 222457.8361789581 -20531.296346256207
171944.872296277 218863.7840683563 -20194.117345291703
170813.6368871755 218833.1977263894 -17474.5818250694
175320.43943657662 221848.4966736759 -18474.73148946025
173049.6246687063 220426.7100722421 -18136.372137417522
166628.11211485812 214951.8903928659 -16063.599249094612
165654.7953358872 214733.7899491727 -13314.31169453132
167657.34775691899 216771.6439260289 -14033.75253576039
169804.9316264917 218674.1143605414 -14710.71282125471
168804.6427693891 218504.34907366039 -11942.876780921439
172099.1129188335 220413.9167307502 -15343.86746328304
171084.2695828754 220263.6439393285 -12580.99431209823
174228.41996411298 221742.04273904552 -15960.64039789432
173215.6973478813 221606.8439659311 -13296.93988393282
175527.4173416561 222909.63720214673 -13465.51418028785
165781.7163909757 224137.9238469026 -18453.88391664954
167145.0961114904 225731.8440175291 -16319.93169557233
168153.18718922982 225799.3282021542 -19117.733202536372
169571.334870827 227316.63854642882 -16988.824498471018
170633.0687958859 227345.0011798059 -19774.63766835259
173214.637891144 228613.7018184059 -20357.367841423682
172195.838065458 228613.05409930152 -17571.53946903724
174908.2756610557 229706.6755945544 -18184.24088914558
164803.87770300088 224033.94261483543 -15623.64154821484
166162.1558261301 225632.0599119994 -13514.11685683052
168590.8048488295 227214.0323524101 -14184.1017940286
170114.8741114822 228579.8411267744 -12024.63627974681
171151.6641243249 228591.42861245578 -14813.6185505861
173838.930663306 229728.9898261079 -15397.70262625942
172797.2859225363 229727.1202323384 -12609.364795781961
175577.2616438563 230684.5172509963 -13196.05963264871
177915.5968146207 223112.5261233194 -18887.04682384452
180544.35705829808 224042.8870582831 -19422.536769827602
181826.9636693109 224860.6460200247 -17144.929865268063
185533.36066021628 225060.2217924605 -20639.804859590382
183093.3493516295 224674.2667023034 -20011.42518273115
187306.84841989758 225574.5117006776 -18535.926101433648
184443.5288819036 225312.74475232142 -17875.997945500232
176617.2780785651 223024.5593572456 -16273.79907037763
178025.9348122029 223998.090644253 -13741.50228330897
179241.04988010172 224109.52916329858 -16612.404146466288
180808.99265319912 224874.6883037619 -14229.47937438463
183561.2428569777 225438.5831225255 -15063.78417499134
182675.77695177592 225502.8883672943 -12244.42284900405
186412.0119974262 225803.35220495472 -15734.225602892771
185618.1522515034 225909.4057073136 -12873.50326361373
177743.81866545742 230635.8178631654 -18800.24477614083
180533.0114770499 231248.5174725361 -19251.35474632718
182371.8459047962 231806.0504997599 -16974.04259601777
183422.52064210622 231771.83178470598 -19758.129774742658
186320.04597055892 232166.0221777476 -20347.20933257584
185199.1604386218 232209.26216452572 -17577.03179612275
176655.99101743771 230660.0499491903 -16028.81319720104
179513.99335385158 231281.51229295591 -16494.25577501419
178438.4230872436 231255.5064924874 -13673.6167233513
181330.6285079146 231758.7852657239 -14179.2409684909
184239.3509113862 232165.322878306 -14680.45911339906
187104.9663983082 232377.13150200862 -15398.153919030041
186134.1544293001 232306.1713443654 -12384.93398571136
145193.67932086892 172066.9304726581 -9494.726845424639
144597.1735334873 169717.4027559798 -8611.36212333273
144758.2482338402 174519.2538011832 -7528.839218365277
145523.123241857 169560.74751788072 -10905.35713789171
145869.6202179706 174617.2353862996 -10464.06502189027
146546.58565057052 177184.413581848 -11827.2900286081
145611.9478099934 177200.7118413547 -8993.819941782223
144161.796844998 171268.3770128569 -7087.740764236702
143048.2493963001 170028.2425608561 -4858.210617372462
143567.0591550733 172968.7915964122 -4863.202958720992
144047.08948836778 175919.401494419 -4848.09187888353
146053.4332891822 169994.2839324252 -4480.202988283355
145018.46077142638 170766.7155708638 -3165.322978205336
144851.0560653123 177233.4363485509 -6673.154463117512
144397.3725702807 178706.5398870501 -4748.7372305559975
146334.7693705399 179826.5493662438 -10209.657589781269
145358.8446931264 179902.3623640695 -7180.63252872594
146185.9856665174 182346.719861832 -8817.59332507035
146134.3098797621 184835.5849956648 -7428.818061507572
147055.14982565428 182351.5764089675 -11742.934360995729
146903.14623083943 184872.60470625342 -10222.40452297684
146819.1808084843 187435.1825505036 -8698.377139984474
146813.2839397717 190041.67775658128 -7208.48608223479
145390.571516759 182682.7479378437 -5930.1100656423205
144759.43649879532 180931.0304168919 -4525.506724551094
145390.9628216956 184794.07847673618 -4713.01597445233
144612.46068854872 183186.7197213015 -2935.2409753581574
145983.414608811 187597.0483448857 -5418.613316835405
146828.9674621837 192615.4727425092 -5754.94084696374
146254.8732300681 190351.45839447092 -4751.904879896947
148436.9512144596 170302.0691464417 -5041.409246424285
149778.5451564125 169739.7348531019 -2817.154224623094
147608.4287424823 187436.00247539958 -11574.47083792245
148253.7008531185 192557.3991893882 -11396.20637850421
147529.22056004353 189997.47726507668 -10049.42017401125
159454.27245190332 192408.5550885957 -9926.37355916065
147496.6610174621 192552.6038306242 -8512.483888911102
159185.41045964058 189570.0903976127 -4883.480591634154
159254.1987046651 191046.61730561889 -7355.934645406866
158813.2588647879 192296.95989827512 -5070.440380586344
142435.74153176518 171647.58172485422 -2448.1473368467837
143494.3802084567 177470.6192410253 -2465.648037984939
142947.9936638081 174599.817828141 -2458.645319228173
146637.6501320725 171627.1721422509 -2614.532305704071
144097.5990122095 172051.4882465169 -1594.8294936157079
141203.61452051593 170315.4777085193 0.0
141816.1204237502 173237.48686774788 0.0
142198.80185633388 170910.63331241658 0.0
143333.56362355512 173536.5310946865 0.0
142427.0489128779 176159.8263284796 0.0
143020.7582282057 179085.6810186723 0.0
142856.0479702965 174486.9331265277 0.0
143844.8546382834 175086.41101146842 0.0
145827.6230502026 172374.0949897454 0.0
145533.5841737582 174708.7159247446 0.0
148393.0071232038 170856.3267007721 0.0
148054.09202716648 173745.5575077301 0.0
145051.31916561688 177172.4473663933 0.0
147326.9951254932 178590.5870751472 0.0
147538.46410956662 176451.7680731746 0.0
149576.29515618502 178456.8396099963 0.0
143981.6139370726 180259.3371248051 -2399.770546172391
145046.85363641637 186306.67516809978 -2501.156075093844
145501.5361345184 189262.33776201142 -2431.088009408887
146062.80084744882 192435.1268609628 -2709.628851012785
143600.7581985306 182014.2931870275 0.0
144143.0890859863 184950.13697563208 0.0
145638.2606625869 180226.635074958 0.0
146222.40603768258 183025.66354150078 0.0
144660.8137568685 187890.32899442548 0.0
145157.5092137855 190834.2371393333 0.0
146770.80719338031 185878.50344033548 0.0
148451.7940545608 181071.0610801785 0.0
148774.6323964351 184055.0646048686 0.0
149255.8736534497 186444.5176630751 0.0
147856.4436153488 192033.7493970862 0.0
147793.74083526572 188874.32771987302 0.0
150011.62765104583 190680.5069986925 0.0
150982.2522480354 169379.9344653119 0.0
151236.10906395482 172644.1277840276 0.0
153727.2867634847 170592.7076043699 0.0
154169.2553963807 173008.36124712258 0.0
150232.3604019717 175696.0749378946 0.0
151178.32390240201 180556.60028137878 0.0
152212.7628899978 177866.3481972655 0.0
153107.8131895993 175119.562048583 0.0
153802.9923299927 179886.7547461172 0.0
156005.6368654157 174555.3045583562 0.0
156833.28886980872 171600.3283535121 0.0
158926.1671918408 173566.8155352218 0.0
159373.2916962532 170913.11774307102 0.0
155026.9837505377 177151.544415313 0.0
155692.8331122225 181971.9839494692 0.0
158707.0774877382 181110.1862518919 0.0
158083.7172740252 176475.5968970106 0.0
157079.0071074192 178984.03164653352 0.0
158730.3681801745 190733.5063875129 -2475.246297827102
158348.3113898465 193585.41117392012 -2408.618341119393
159272.0150968476 187884.56499503768 -2526.781074661691
151443.72335095282 185298.2490074064 0.0
150538.3163122317 182701.44306236051 0.0
153720.92873552212 187742.288012453 0.0
152843.1078568076 182526.2403379701 0.0
150758.47945103378 188389.7984454466 0.0
150815.1452722142 193017.6424850711 0.0
152405.9582343057 190430.8314069892 0.0
153504.6276554036 192489.1242459538 0.0
156612.36998078288 186992.6999962377 0.0
154593.48212881578 184784.6417973442 0.0
159427.7767821867 186272.9147918078 0.0
157501.3237113327 183950.0651988865 0.0
155604.7648015306 193442.2281554635 0.0
155548.5021709751 190340.4919065721 0.0
158736.1533194284 189155.96365148362 0.0
158237.45621877917 192079.1591850741 0.0
148243.4072349859 195117.5270872153 -9866.365655485632
148260.4871431698 197666.40122222778 -8373.670960284167
149011.6095082839 197657.19450378712 -11215.121726481779
149052.6098433949 200212.56029124148 -9642.280777541257
149928.50232555612 202731.5663129994 -10940.18814227175
149096.25694029278 202741.66968764458 -8080.61972764672
147511.3642127928 195100.46298863448 -6963.344492768308
146862.3359660215 195129.2346940005 -4275.224376662967
147543.8874706137 197651.2462358979 -5476.845782195901
147687.3416190211 199922.1604582776 -4577.218167603929
148324.3760754509 200159.4346200168 -6898.076961785739
148251.62843896748 202664.1744370672 -5082.409419814932
151191.0574526289 207494.56578469882 -10958.39397696711
150037.20770885498 205255.0669417694 -9362.700976901471
151608.029241437 209817.97810733572 -9658.962459435212
150292.10421865908 207645.7974439409 -8061.373684088995
153005.71624824867 211814.005158769 -10851.23581136448
151949.1141749795 211672.58716694682 -8020.881191035906
153611.3693001525 213898.4864528173 -8925.85935619149
149254.5300498122 205290.1938761184 -6650.621203722134
148587.7141805774 205440.8976461764 -4244.489793687005
150578.50460133763 209817.7097228529 -6777.174342734443
149191.2150337659 207807.08886475948 -5010.766692119635
149800.29099311712 210081.9298854002 -4429.390402969978
150806.8568974719 211611.08076127892 -5277.509836411283
151514.742582857 213466.9928144122 -4304.303489940809
152527.15342944692 213851.4893813002 -6250.532904822178
153392.9443011315 215396.2999054993 -4654.138469372958
158954.65938767692 193784.2084600775 -7425.198660632608
158761.2432489378 196665.5498331828 -7415.542531372153
158721.9949658229 199559.16681386612 -7435.671195252193
158801.4510079059 202371.3232701007 -7359.401940164106
159150.0692962337 198122.5644511769 -9937.173315519907
159226.0404425056 195286.77776079418 -9905.033349868207
159198.62573910298 200939.38774343728 -9866.208987408612
159277.51726749178 203341.200238099 -9373.932562154623
159053.6156327336 205086.0783282271 -7415.356130214855
158377.8698717779 198111.1494837153 -4919.758714939984
158363.0775985459 201022.505736483 -4945.773800622253
158417.8690615556 203902.400215695 -4884.398420039995
158541.19132740458 195134.1328365897 -5040.93037173123
158628.4920801899 206679.1266206106 -5004.919819973168
154604.0266587981 214002.29531503707 -11714.86402040385
155499.337813306 216051.160423085 -9754.806047426562
157437.22447877302 218147.6107136576 -10575.69418528094
159501.33563226438 220125.32674220882 -11324.45701102532
158557.2802981323 219977.5252744979 -8511.388927995438
154534.7655491227 215881.6700273526 -7086.960284207758
156494.9201994098 217960.8905654792 -7834.2263409978805
155330.0851874995 217570.4497935278 -5058.576565981508
159381.7143552652 209077.6546999083 -4433.178569462681
157530.3703599457 219804.7479514055 -5205.015304281263
146281.6440252049 195193.7546649221 -1844.887954795674
146884.81047926418 197923.5627091081 -2651.748526540647
147356.1277099736 201180.4913286382 -2492.247499161476
145615.22424010432 193784.455884916 0.0
146058.41480582798 196736.84929030738 0.0
148614.72874229198 197830.27202798182 0.0
148217.7084655937 194871.6364444447 0.0
146484.07162150368 199691.8649954849 0.0
146890.7430519379 202649.5466544217 0.0
149506.2873836324 200963.39762275052 0.0
150713.8994851851 196201.0762807871 0.0
152998.2932886343 194768.41067838029 0.0
152844.56036341068 197655.4102937788 0.0
150802.74614582272 198917.5158890286 0.0
152419.5831535872 200668.05398799802 0.0
152592.8663878591 203491.7541803124 0.0
147740.071675843 204013.6310940635 -2439.388229766978
148233.8385965506 206961.8544187423 -2439.8388754177913
148856.39334574 209678.9795210021 -2333.276777147292
150110.2270325024 212078.5457587157 -2779.839333923925
151869.40232656908 214660.6064292063 -2302.015937417511
147291.48235335218 205608.0397596819 0.0
149955.3697439842 206999.77157995768 0.0
149665.2105950919 204155.17578475538 0.0
147685.1699220317 208567.4842414798 0.0
148761.4228077959 211330.929247903 0.0
150138.4372704683 209360.2169740696 0.0
151969.9630303089 205977.33617834188 0.0
152627.0839881938 208618.2622280977 0.0
150281.8201611409 213854.89489348608 0.0
152358.4835207249 215999.8356464063 0.0
151663.139890336 211284.6375729098 0.0
157895.49630845472 202432.2827509218 -2484.832619846261
157953.4541661078 199536.82720787692 -2474.849024113845
157971.9898408651 205384.8417245248 -2496.285231668712
158113.2475783254 196529.356205564 -2546.451055685743
158125.27141146339 208106.8294495469 -2243.1908131160353
155102.22828602098 199299.25553873138 0.0
155217.94892391152 196293.6478491615 0.0
154422.1660964638 206476.93421212232 0.0
154988.7251767035 202175.11676295727 0.0
155348.1087909235 204464.3579267757 0.0
157663.2133150998 197982.21676651118 0.0
157522.1561930886 200945.1651943415 0.0
157890.73856546328 195024.7551332436 0.0
157376.8230977056 206875.9949702929 0.0
157433.8197882629 203910.1791899313 0.0
153938.6956302407 216891.5836708231 -2515.7829379127993
155923.641488976 218819.10078020932 -2669.050879361673
157451.5986970317 220499.8724814767 -2163.6890423135096
159028.29162189638 221674.1887623737 -3443.335310453352
153867.3952359965 213350.9000001882 0.0
154109.3077883448 210895.48749245921 0.0
155683.6999661577 209082.87369389 0.0
154468.5058741026 218111.82682265452 0.0
155076.14443236229 215641.6800143552 0.0
156513.4602226605 211587.0525141025 0.0
157153.29670838692 214092.85582148872 0.0
158439.2624137304 209512.72348687082 0.0
159617.1176532199 214943.2141462919 0.0
156604.8301885823 220196.87574935678 0.0
158796.58409970408 222224.0699521059 0.0
157707.17846959058 217090.24601231102 0.0
160332.9435595049 186666.7856190093 -9642.816402957
159799.08937238078 189563.4647943635 -9769.561604857385
162203.1140718634 181035.6938620104 -9872.547056063286
161092.21139005668 183824.7451048909 -9491.732439846017
160401.4033887125 185294.2155259553 -7081.239907813621
159731.096528167 188173.9120930525 -7286.831905159039
162741.0336080883 179430.0382897673 -7533.953604394238
161387.031004599 182383.20671532198 -7293.500216966
159762.6399725347 205527.42635088917 -10133.26646145244
160675.803232862 208050.73817374159 -10793.022768883491
162146.5916298124 210415.4788092497 -11702.28151802252
162930.6741653238 212471.19010563052 -9769.509908398977
159706.7987482902 207934.6332457017 -7522.352822357945
160523.4831447111 210107.5803773634 -6435.326352692573
161250.6008757595 210226.8238039951 -8923.038351106856
162063.4763401195 212262.5466840067 -6977.9901721905735
167684.68296823828 172534.7860492522 -11849.32282861693
166796.2832611048 173485.64674037 -9936.362564689038
170143.37985014732 169782.5321127325 -10907.740253442009
168654.6320640599 171292.7161740216 -10233.79652668547
167643.1577119598 172376.7215536154 -7684.098894209959
169855.87807628387 169986.67610416398 -8257.939555167355
163559.7895163164 178340.5689156306 -10055.34088165163
165122.4899477341 175820.0661523295 -10226.16802577356
164145.9502480533 177032.0904721537 -7765.163594961125
165813.1199528891 174634.23173377212 -7740.352479993923
160630.5054446055 183876.44178690918 -4833.407988197186
161088.5032948087 182159.7986403952 -2562.622092660473
159821.2213610911 186645.73193293298 -4979.694602525894
160042.35851219908 184964.33798343487 -2557.334151198081
163231.04069366018 178276.307910271 -5110.340213664968
162392.77967919823 179481.76397481398 -2532.9631070021896
161910.2055140673 180759.56638331313 -4994.456637133368
160233.443186873 178283.7134094212 0.0
161267.92600820432 172033.3744336675 0.0
160351.544088639 183455.9641202178 0.0
161533.3416878423 180736.67790527618 0.0
162878.29833494892 169842.703380262 0.0
161570.56972437492 175465.5737196928 0.0
163006.9528573687 178163.65076570513 0.0
161146.02824001783 211735.5673031132 -4681.652704014206
161431.6173716908 212869.0722559771 -2533.557492531414
159754.487421575 210589.3898111665 -2306.1307370044137
160138.4842364918 211944.0422416839 0.0
167558.2495621115 172324.0043346749 -2568.20280024408
