864
131077.0795141815 112124.2183983165 -51029.377866469535
133303.05460451508 112789.9287257813 -52780.73346690574
134600.5965206616 112893.09565879751 -48935.41214377615
131721.5885832492 108132.1950903738 -46755.679096474705
126889.8084479273 108991.4995312653 -45157.12588618644
129451.11382359901 107477.55482131371 -44922.02931442712
128185.50582297411 112866.9332877851 -44789.16400703621
130789.4461739065 111954.1336701701 -45662.959346115254
130040.8411642706 110744.7882120984 -43835.441887279776
134418.2671619679 107014.6027435736 -46232.34672114742
132072.8415545952 106203.1455297256 -44548.00669100348
134776.0301377302 105162.4829689972 -43866.81652587253
132488.79012228947 112140.7410314489 -46954.831396619
135326.4537762829 110665.0479994889 -46459.505869939145
132700.6968920867 110427.02694147729 -44991.52702583793
134707.5288124411 108971.4335185301 -44071.21215860092
127456.45006204241 116537.54634851769 -52906.942997316626
128573.4739612796 120437.4509890937 -52274.60772310058
126171.4325696715 124884.4781300435 -53181.63048565392
128266.88125261589 122924.9295276436 -53873.470657603466
126391.2660285605 122334.0722924821 -51669.24113290167
129957.0601574427 116099.1887639855 -54068.2037868146
132779.24270058738 114877.7213819603 -54474.47460834526
131129.90478935442 113957.8211008002 -52855.259952093416
130554.00712361549 121100.4071002301 -54386.58106976546
130952.8919850227 118705.3973453864 -52675.62377394489
133439.8528805463 117208.6745343933 -52940.20128960514
128600.1200944929 114117.5858026955 -51604.23668231849
127578.0875522541 115143.4212339821 -46556.49469566102
129456.8694642018 115731.3624912825 -48808.45653368171
126683.0398103166 119846.3471649406 -50075.57268893652
128928.1206115141 117995.1319846883 -50621.67326774821
127101.8852332558 117472.2810818922 -48337.9381374709
133998.3920090005 114909.40151435671 -50990.179067248806
131931.22371153318 114212.7480134889 -48982.37031928607
131409.43270334092 116371.1619066553 -50932.50804249312
116231.0871274433 114267.36604150609 -40149.665889099095
118121.1870761546 112285.9687038319 -40706.37972509981
116418.4894093942 112446.2348017065 -38783.07266358631
116120.5219959751 116625.648542012 -41978.6826255351
117999.9748598473 114377.0883733426 -42553.41721207306
114848.2233631103 116259.4018084166 -39935.79797620655
120086.8349895775 112278.8892670887 -42931.921510704524
120099.17604153919 108645.5363628299 -39185.973407911006
120185.81863135149 110271.8899317567 -41024.725239144216
120179.2005310861 117703.72916923491 -40469.39943522605
121513.0666981613 115113.6271636476 -40052.31564779751
115442.4577837791 111480.77730605801 -36658.935821805375
116715.73782811561 108971.5498507736 -35869.75947465398
113370.8504292511 116976.41537270551 -38355.639376067506
114439.8989091658 114231.6193222343 -37777.15340729204
112338.54620313509 115533.1445829984 -35783.219382744915
117592.71822166281 117417.7819717546 -36401.55529309776
118022.42618073289 110186.2048893225 -38545.860503777854
121536.6694902072 106875.1111783282 -38550.683566724474
119078.58730216899 107834.28597759639 -37230.48814807855
120591.2731741016 105640.2989033645 -36217.66480860678
119467.7633607141 116263.3477478965 -38290.65746539861
120733.6182853695 113665.9775018027 -37767.37985822645
118730.8663946871 114712.4206100808 -35904.81454311969
120013.8255509631 112096.9149017285 -35332.563487303945
114423.7470043736 121398.2525578109 -42981.58620254011
112865.4429045753 121338.86819271371 -40468.01196149361
114314.31233258221 118663.2876514187 -40912.83419867312
112979.9826711538 123841.573593189 -42050.95056119343
113201.7763025514 126386.99732179749 -43597.71314670514
111660.7635759969 126323.2427639441 -41039.88345871397
115581.9534531151 127418.22950097431 -39756.63876563095
116123.66204054019 119053.92490165011 -43712.15283385502
121298.8279325406 118455.1925490844 -42768.31260433694
119214.7392754578 120564.56660988969 -41365.5994438748
119520.8321705918 122908.3146241043 -43574.5784865975
117123.8390947485 126165.1034234231 -41942.8771582819
117979.5285447504 123402.3507549708 -41507.55107571528
111158.7155850636 121132.3009861668 -37623.819637274064
112658.2333908716 119291.4379805049 -38865.58570482276
109462.6392706107 122329.674406096 -35424.09668704888
111630.614448771 118269.307846289 -36598.79528745358
110054.09092887059 126259.01566524319 -38260.916087615566
111509.9690050866 123755.4709613694 -39600.64284790208
109043.7407115417 125042.7330803343 -36016.59384804989
108634.9964778025 127172.3693564158 -36089.99385793026
110257.1915142546 123533.8180213459 -37372.61417648821
117309.63460143261 121738.0361572406 -39112.483861951856
118331.7932608341 118982.1944819544 -38743.771706626554
116533.2117519124 120183.8337946768 -36760.188137977966
116387.9073419076 124546.6731661471 -39425.56210084696
114767.7756892415 125823.85592890909 -37285.042271242615
115599.16899084141 122988.9448927515 -37059.92891651785
127610.7657168087 105031.9361828043 -40822.86623511307
125569.299729669 104421.7843394146 -38692.92575682671
128271.47361149499 103216.8487106497 -38657.68293799255
125196.9631797401 106514.9055754232 -41127.150253176536
129817.3783498647 105527.84725933221 -42700.66145870393
123535.4392757858 106081.5204206944 -39332.537517400975
132495.2165599341 104427.3544671737 -42164.45830611519
135244.2854588629 103549.2054720123 -41424.07652131102
130257.00594532449 103777.1459768956 -40408.23025554726
132962.070302268 102767.86457112369 -39748.3036165949
135435.964098626 106213.7889853594 -40262.35774681021
133510.4875377313 105885.4206081814 -39143.20445689194
126630.0646355884 102710.71529853219 -37070.23168374178
124585.6172381852 103098.92375718169 -36234.84790623554
128621.97180121581 101572.3534571288 -36358.04429662524
123176.1553440759 104808.1956080978 -37471.99977255988
128126.15307320391 106211.5147396869 -36675.00644323174
125567.5691797604 106665.4053910903 -35302.899356146416
130689.7968907991 102121.2264847 -38069.16800301742
133311.320971685 101224.67318342051 -37227.5391790184
131070.0091291943 100484.7167376884 -35601.551526617375
130796.98680439612 105968.33552441571 -37997.052242127065
132936.970635944 104419.3994899523 -36626.65658963632
130202.1663474828 104462.1554272974 -35474.599593861254
135136.5298830498 103253.0100567786 -35304.297587385816
122315.859505145 110314.7960709221 -43152.284718869945
124686.074585239 108497.8250388756 -43206.83707338264
122508.5465903954 108109.3407472115 -40883.59266593352
123770.9876874051 114220.06688985169 -42013.122765823755
122012.8055284202 116440.1564812024 -41945.43007280293
125745.8973069199 112891.78208273649 -42784.25504816724
125139.06859293669 111843.5110629331 -40986.84700594019
127185.7728636343 106873.62025795631 -43075.49309000498
134106.49964630342 107380.9548725837 -41662.53969868565
127436.1569801504 111219.62633209991 -42484.46946869536
132016.7830040202 108957.8812091338 -42890.71985571862
129351.56789784199 109289.2812687746 -41613.55734843143
124445.4098374746 110357.10751690701 -38680.42734055309
123794.0023175775 108799.5118832624 -36221.8838181702
122991.58722692999 112697.6899411887 -39577.14514149817
122185.82065484491 111138.5183969602 -37050.63140153743
128745.1746709715 107743.32963849731 -39178.94120974396
131371.4180845329 107469.0661482551 -40458.112131183494
126192.8177796276 108181.60695900519 -37734.258374524354
126783.1677305133 109745.8158868965 -40135.720838775414
115665.1921890813 134501.30775580517 -49399.460870750314
114855.083507416 137268.28680093068 -48628.02394019219
115782.5363670603 139599.4221414848 -50244.13019373999
115111.98423232269 142375.2351750707 -49379.196464293054
117414.416386344 134074.7923742553 -51763.51335107057
116507.637133199 131736.0075119999 -49920.29461760445
117513.13054782069 129022.07768148552 -50377.052480330465
117537.07026636129 139156.8027526517 -52603.6908775345
116553.63270492469 136820.9531933903 -51058.771550084384
116782.92012004221 141925.3574981924 -51810.115771499
114049.8084692674 134979.58567163302 -47132.43369885236
113517.915040051 132930.3387360327 -45951.73429999812
114029.50684922711 130853.45535782889 -46195.12554954883
113463.27442610379 142818.44714520968 -46931.519472930784
114131.62408888241 140042.09240909238 -47798.10278522326
112476.3260400367 140484.9371062323 -45366.58417678818
113205.8360146944 137701.3553011786 -46259.458972482906
114857.85667761561 132372.750639704 -47744.839467494065
115379.5545384573 129301.50868899179 -47592.80896172266
117701.4214142672 134991.2406046399 -46693.82544674879
116994.3371374203 140516.5217291491 -46365.16803724127
117255.6606596552 137730.90745410539 -46482.86077153382
115593.9425414266 147477.9199820028 -49999.67718817656
114518.443735261 145148.4733503639 -48462.85404473568
115741.3491044522 155355.172207097 -49493.67389174988
115082.9043842916 150241.002085553 -49078.640852552344
117290.2217657684 147042.5385067053 -52388.941370656736
116155.98930259919 144709.35823465648 -50916.473069403524
116696.0315588332 149817.5470413985 -51470.47508120527
117380.3585376605 154920.7643313188 -51888.08486343438
116202.0857639561 152587.9875278903 -50482.80799260799
113961.929366223 147919.6268935315 -47550.37244175999
112874.75258229721 145581.3804953192 -46044.83506703535
113485.6794452233 150643.7264893096 -46718.78145773761
114120.52659118839 155820.7368548745 -47076.96382942837
114588.7392710836 153041.95893272298 -48079.37253545668
112971.1563091478 153517.52786336042 -45699.64505064149
116934.7721407239 146487.87341871802 -46481.33402110184
116953.622867135 149425.0522686771 -46479.883950166026
116958.9978974146 143497.7822359481 -46465.74984754349
117044.6556722693 152387.87526742538 -46492.95129141632
117167.16801931559 155327.5121309053 -46430.466707116924
120470.2817184142 130902.4501737189 -54416.25972530813
118352.3674421626 131337.9150040035 -52230.57365529116
119535.4352663996 128616.38779076611 -52701.49845958882
119397.101072332 133646.7053022606 -53954.98422328643
118415.23465232861 136444.8696495746 -53344.4132817685
124335.9552312551 129479.63517185579 -53958.01860883209
122717.37181236151 131190.8529033282 -52803.61344317251
123110.7601757925 128740.00444129371 -52133.82907718316
121811.5650144942 137199.3153433076 -53128.31967452183
122245.80753290969 134165.538737606 -53146.81455092235
121467.6417034958 139918.0646365887 -52907.205255228495
119303.18017782799 133806.0825417049 -48983.11053819428
118225.2887376539 132181.9135805696 -46708.1036150001
118973.6469888434 129310.89817797141 -46588.52307483666
118814.3401435171 136600.5125660486 -48852.34125443483
118401.30971966499 139338.150975772 -48542.64482845238
121520.1338593555 129640.3207881318 -50679.32421008847
119908.36664701029 130911.3204398919 -48852.36581465864
120636.4671970606 128093.40093642009 -48498.569162734966
120431.34400881149 135493.2878966382 -51123.75610761695
120935.7596353262 132564.4685931926 -51068.93786552031
119977.53670359189 138220.258937814 -50891.6386453976
118671.3181770433 141489.4829748798 -54077.700293978305
117957.22070447801 144266.1834690219 -53252.80836974239
118501.8654701836 149360.2991795875 -53718.077869919754
119088.5273377794 154466.7232247137 -54002.31780334414
117906.2178430219 152185.78482763682 -52782.37260832631
121248.3598518333 145079.5583479283 -52739.72338582723
121363.2177964844 147854.36972920859 -52841.473312624265
121145.6395068282 142487.22305639338 -52587.89028690713
121488.49326909741 150850.8959208403 -52854.84244481643
121582.19235910261 153782.9991942103 -52719.719377847
118299.4527035536 144992.9645810159 -48636.9367799491
118327.9308168109 147914.9590846586 -48664.56529180855
118315.1644799034 142097.680590877 -48589.68226449494
118414.3046805071 150891.94494428489 -48688.23139584782
118514.4079681189 153851.0763657109 -48617.13079504473
119693.7397177538 146401.2403689571 -50781.51106776018
119631.0782656385 143648.741586539 -50699.37670867012
119687.190996591 140925.2878530105 -50696.38238816368
119801.01945408479 149382.4373759865 -50840.835794686056
119903.4119209596 152363.2794057521 -50801.8300450003
120035.22076516779 155309.3119551842 -50691.6914773262
109842.29802964759 133964.9154801176 -40218.63242239229
110459.202702952 128835.1313818141 -39958.799517297004
110355.74309572669 136562.1997828833 -41600.93886358847
109741.1037419441 139237.30890600482 -40764.75076695684
109779.803810361 141672.50944204058 -41041.189917279706
111070.6616105756 133669.5757126262 -42435.66892276885
111924.8254133725 128880.7805782364 -42568.62112082208
110837.49785176011 131388.7692629169 -41392.79998798473
111500.0765736223 138155.282230482 -43783.19415437729
110828.3457987229 140927.68834613942 -42905.84636093174
107513.55622496721 136485.95615268458 -36347.37673209785
107889.4608853491 131534.11262629458 -36069.80016907597
108089.62676486949 139087.9465212456 -37696.017978040036
107250.1777722665 141651.79990190588 -36414.785906851175
109402.0091760687 131375.4490109651 -38796.282074885174
108421.82646575429 133926.7927130223 -37591.29080203165
108994.47363857161 129060.23177354649 -37412.82941401401
108934.7764627347 136524.1633197916 -38974.21281429339
108610.90852556561 141658.9884279086 -38903.02028647163
109900.94652147581 146493.086647269 -41324.35547695154
110389.5632092799 143778.3013400541 -42188.655417710055
109202.5970646455 144189.6822131577 -40016.69451200861
110347.2466499131 151593.0173297048 -41834.14744067656
109424.7007671254 149249.82549790392 -40347.551265557675
109883.6308982132 154342.196772016 -40773.19460509438
111819.7318217135 143261.7331725911 -44479.997266389015
111301.3851818827 145972.33042800208 -43730.15317238144
111880.8184202778 151146.0657732825 -44321.8924752515
110799.3523543026 148769.7488048543 -42827.41923276012
111342.3466076163 153908.0013885382 -43310.83245004135
107977.8215478788 149413.4210218159 -37794.86748639269
108553.5292666773 146860.8954364677 -38886.66833829791
107162.2408048878 146821.54523053608 -36389.93602390214
107874.2596568665 144300.8900491063 -37622.68125536684
108374.9334857217 154681.0911950635 -38142.85483452819
108900.1562782321 151971.69709498 -39253.240781740584
107364.8378153634 152180.58633117742 -36558.83921879833
111928.98816566079 146592.30510484558 -37483.62351094233
110810.7712943305 148006.8115922777 -35337.93773074071
110935.6527050454 145020.5753279592 -35352.12490289637
111884.0852636712 149532.38484698118 -37517.87129219429
111905.76255293589 152509.3721593357 -37571.068856117665
110756.50822969171 153919.1116329395 -35346.97798546483
112375.778618646 131471.6780164781 -43975.384252616015
113644.1074474086 128881.45465274519 -45054.54281070066
114862.0804561739 134645.7526350588 -41714.00482099551
112253.75964961511 135091.53509975702 -44510.28946004578
114379.8665869227 140540.16388937962 -41941.49289525114
114523.9778358334 137584.518275045 -41760.92263958855
117257.9409758825 130559.19483070949 -44467.348755132276
118020.49483181059 127791.1638290408 -44329.41961464499
115615.9519264652 131827.770961997 -42225.00726743412
116316.7432829741 128959.35151817718 -42179.36153865967
116644.9136724611 133463.77167832848 -44540.53291467411
115717.4033746148 139065.7728273099 -44143.250544940034
115974.87921505091 136181.4083064544 -44123.37375506003
112710.50231895229 134667.028205598 -37142.53167230666
113143.3703719292 131725.0696005621 -36997.90045497009
113337.0712394392 139099.912914896 -39550.3424996604
112375.3416277649 137621.9249618061 -37222.41487886681
114821.10161274229 130293.77410020371 -39831.6352364275
113957.1104673537 128914.85683075209 -37384.12908518307
113566.6721803076 136136.6434648901 -39403.39092508312
113961.2496413953 133195.707854624 -39310.13910223177
112384.8375508125 148295.3881993511 -45219.12972480741
114244.7625377639 146511.3480476986 -42097.86488075617
114275.1605473637 143527.998508084 -42014.00318981977
114236.3141575168 149476.8578501795 -42116.00583756167
114291.7398287315 152445.6577149464 -42129.303408950844
114385.5410940749 155390.99366325472 -42090.59602050521
115551.54097303971 147964.3221400619 -44300.96304881631
115590.1937240413 145010.55961567038 -44323.54329419927
115620.7239503634 142021.7800836994 -44239.19087411288
115598.9911640005 150934.5501703317 -44326.51463138858
115678.9897043959 153911.52028967888 -44292.60642356085
112034.1675838325 143611.7999604208 -37456.02606929531
112186.8709670589 140598.9169923037 -37388.69151365109
111971.4227049641 155476.61877938488 -37586.53847236604
113055.02250234371 148017.4255754129 -39796.27056318026
113090.9746497146 145042.45264840277 -39742.71019728599
113194.1351228204 142066.87903341118 -39679.81369060057
113120.47191466669 153969.11244339982 -39833.56384629226
113063.6076079979 150992.9927711155 -39827.12450062338
136362.9649688534 109634.53438333 -50200.22456751182
139117.16451130662 108754.1629438419 -49440.89128514394
141887.3910187758 108143.7751513149 -48506.537006341096
138693.41408662958 110541.9729367893 -51798.396522605326
141468.6218556214 109796.0665876159 -50959.058348818486
140379.46152457912 110945.0125955447 -48162.95246918216
144225.950134938 109313.38632623761 -49952.87831557183
146967.8559422068 109059.0172636039 -48792.043040626515
143786.0426333295 110937.7949163566 -52433.15927075974
146576.4094125487 110510.2123136592 -51351.39412147959
136770.64055807263 107831.867589238 -47841.29380942959
139536.1074085473 107078.9038194573 -47004.18322601764
137194.2615835657 106103.3695502397 -45483.95965967879
142286.4670267344 106609.7575904712 -46000.277997276025
138297.61347478832 109936.53166611951 -46414.418017766606
140896.5829124162 109529.6132862652 -46181.3159216323
144639.4269603841 107784.8500705477 -47403.82072244213
147312.46050915372 107664.8313764798 -46221.6509027454
145041.9072635705 106350.985319268 -44847.24581429825
143044.328731235 110235.08330361069 -47193.60153464825
148106.1362610934 110659.313748834 -46691.296555379
145502.84278983902 109576.9856983485 -45758.60662041562
138306.8338507491 112526.043837527 -54003.79621246749
141061.4728559661 111608.772218753 -53325.51151936187
135961.0632898728 111592.8401966058 -52423.12869286631
141142.2821097725 115743.3321962392 -54276.925657324595
136156.8054865 115834.04952621559 -52871.6190588144
138783.2789877473 114732.63777244129 -52616.03460740139
141026.6086241353 113792.0097077337 -52034.05298962571
146194.33667610842 112224.2588412587 -53772.571284776546
143454.576819637 114004.8486539348 -52488.93993906055
143964.20813741922 115604.58618658141 -54457.90245198127
148486.35963499232 115617.52398524339 -54071.466155852584
145877.1647953543 114571.0405867937 -53114.78137239368
142742.89237032348 112098.96616618709 -50037.81479098598
137334.04581770502 111793.9619738731 -48693.623454642635
136713.23619201992 113705.1571751272 -50859.91719649209
139520.22569818102 112688.1443196378 -50461.769252468795
148273.1186112171 112181.5126233261 -49258.999327728234
145643.05964958522 111142.20325413071 -48278.346698218
148393.7698833121 113840.5715871953 -51718.05292247726
145777.51454112979 112748.0746074972 -50772.71328532224
148915.3228315968 111855.2799156832 -52659.05108447051
151609.14839493678 111708.64115583179 -51444.50585719548
149293.6505322806 110364.4551032053 -50118.940780026394
150931.8147652497 115065.94342540331 -52592.77178250038
151166.9903203565 113256.3850553026 -53908.53210310549
150843.9910743025 113335.79833223099 -50117.815209043576
153002.96767836038 114615.03729410759 -50974.9099401204
153862.2840941706 113213.3036557507 -52696.169422831284
154254.8719839738 111831.9351735249 -50061.96838404371
156508.290147189 113336.01909092 -51309.83825933096
156125.58544939008 114741.1582330028 -53932.75727601289
158758.8201310069 114920.3486655717 -52539.06469249467
159050.93034162972 113753.00761115081 -49782.76124380719
149668.7868915367 108999.56365520999 -47505.15425160945
151959.64466613508 110421.3627021392 -48788.304422638146
150525.8135668235 110472.7209273656 -44948.88210284988
149994.24910314012 107728.2013999714 -44883.49961628268
152316.8744824677 109121.7989968936 -46104.71246591293
150636.5070426531 111893.5750599898 -47577.391550095024
153011.21805044368 113254.6729122636 -48434.76992090026
153012.4759930795 111937.1880849251 -45706.63016839802
154635.95973803668 110679.539072553 -47316.66511142315
156829.43024546962 112156.6574730001 -48580.92736281652
157498.0577324117 111351.55906510439 -45982.990338125834
159509.7086200034 112829.6157614886 -47128.48473483584
155187.3922261318 114573.3454211507 -48990.73248720946
155213.0316741931 113479.79121586491 -46454.99369157815
156954.58675193068 114825.0357414622 -46961.12193294807
153284.78053302938 116333.4217132074 -53323.61735172082
155227.5225998593 115803.6414532606 -51287.7999608564
155663.74958635418 117618.37906392191 -53741.569157282735
157986.9033051297 119000.8150157514 -53915.67251142105
160002.1095331639 120367.2120696515 -53766.541698322464
157672.0038777032 117326.0745521848 -51520.3534089034
160000.5915860533 119163.1238768303 -51640.78913937949
159881.4581254274 129110.14252711622 -52147.660612362284
157137.35890588278 115767.3396251915 -49051.200186567134
157983.7956479494 129858.66433199769 -49993.15273365035
156473.1298802963 129543.95767852028 -45092.19930260436
158248.5063153016 128652.2007456639 -47295.681248355504
159460.4598913877 117611.7013507425 -49168.45670179728
158790.400942735 116176.8961374386 -46657.75894503613
160098.45850200258 127800.2398513129 -49605.312393584965
160243.61094243242 126508.8166160458 -46817.09881735821
138016.22693149679 102950.8642088009 -40454.02579983269
135662.6270445582 102038.5820138073 -38868.311985099484
137587.1183857661 104420.3316365499 -43017.403104394616
140766.65337505 102637.03735621119 -39345.64058827205
140335.4765439229 103988.3921065247 -41984.94747335795
143097.66121825352 103799.4973897187 -40797.664815008095
145787.93616555212 103863.9677728528 -39513.009867618544
138421.854075475 101579.7698592394 -37837.61458430008
136070.5577980029 100598.5431126981 -36290.63123022328
135655.0100683631 104778.11156877471 -37989.09986177707
137944.01004623112 104555.5444644464 -37853.49742402889
137266.9775557774 103646.3366446945 -36187.23523936363
139612.6333678436 103614.3442898409 -35986.73756294102
143474.72214381178 102591.6722992831 -38096.934253947504
146124.2921194474 102780.03916046799 -36739.1124087258
141138.7374151491 101403.859880585 -36665.66864189126
143837.3785584963 101442.34285879691 -35368.075758141655
148409.135248803 104122.843889818 -38109.58094074643
142334.93237486912 104429.050086313 -36934.180281828
139952.49516230752 105436.062715562 -44547.995045507865
142692.7925369392 105087.40725980689 -43487.7649516643
142722.0830528962 107109.0791701724 -42218.449041094726
139920.3147877394 108109.7899087821 -44025.01738786677
137122.90395660058 108769.4167682677 -44531.16456944322
142846.0405388106 108594.1943410654 -44681.52373914316
136972.955995102 107197.6322999477 -42305.241637105566
147716.0211136694 106301.8817166176 -43604.98105319505
145413.03104527318 105016.1742524942 -42217.87989563904
145356.06488748878 108047.1212724652 -43217.775131329196
147966.3138054917 109186.3377657303 -44139.92827362343
147756.470114291 107831.6340436922 -41483.10449475427
137650.1911726092 105652.2722698945 -39756.644883758905
140076.6754600268 105039.4970024485 -38659.11759117441
140065.6954105652 106365.9701588942 -41120.31146994426
142547.76218074828 105763.7612015037 -39604.452021500205
148068.1102122055 105198.6447391682 -40872.09060035244
144954.7574471721 105438.9398622088 -37898.52142537747
147269.65776536762 105477.107512063 -36136.114914242105
145161.3880222608 106711.8240215082 -40572.72259403432
147530.95447809368 106609.65850478329 -38786.435842384075
149761.7374959522 106876.2045162657 -36885.11154238021
150367.49211273578 106537.57929814179 -42215.75706698987
152641.2218364784 107880.7637438827 -43225.7135831825
152809.45010423032 106934.33716837519 -40567.5588310218
150301.4737591783 109116.2600470401 -42313.37171263242
152771.43725423948 110611.9807830511 -43076.52443118818
152477.7243448058 109514.0860910774 -40369.48518318826
154759.3823953683 111146.98462750821 -40942.357043410564
155478.1331543462 109447.24324373889 -43948.943543873975
158267.13228618872 110780.2062509474 -43741.18235112046
155092.08652308412 108321.8506682657 -41366.30821101518
157626.7791224044 109733.0532549098 -41728.106269733995
155198.4027549084 112331.8223238474 -43707.861391971324
157579.0270458966 114372.4597244763 -44401.00570383731
157125.8231428845 113160.5238234562 -41550.615269189824
160059.7030390612 111313.4051596729 -42237.322160735705
150651.0270746065 105587.34768526201 -39427.795117300346
153049.0755044269 106100.82681742389 -37898.18959422219
150938.1423508411 104641.72567946621 -36611.042035196486
154670.23434754022 106462.6793517405 -36354.02361377556
150048.9684151036 107982.0976216679 -39616.43397638252
154465.2934675081 110191.786648456 -38235.5245094679
154878.756805157 107367.5862251379 -38787.70485622226
152162.92423385038 108439.6902301118 -37568.4816402585
154082.648051438 109239.5626955835 -35449.3882870061
157107.2236630267 108678.1231640258 -39175.233253490565
159497.1910135556 110253.9195589267 -39611.27241450413
156633.70191548008 107664.1930063853 -36587.039577763644
158983.94729690198 109206.2308045824 -36923.300165428336
156624.6260020673 112132.7178352723 -38857.423636222935
158594.3348152428 114220.7415983933 -39086.059543448944
156210.4978658458 111217.2058275515 -36063.318226412935
157938.6484853994 113134.722528751 -36756.62039331393
156777.1385254546 128380.9213623251 -42379.8044734522
154781.2316586883 130457.9641341075 -42902.13514452005
157660.29978968028 130339.98584317081 -40719.18607400773
160169.2019687835 116932.57466588651 -44139.991844272234
159321.0563264332 115428.5826429772 -41662.74847580355
158519.3137757762 127453.9093997007 -44595.12265751728
160334.80065243092 125143.10833626559 -44184.42035937972
158748.68006221 126201.9082131049 -41959.46521539668
157192.2766776921 127315.4119055509 -39668.92384539666
157483.04610273062 126265.20491958731 -36946.15441724313
155182.3287553519 129460.05734513071 -40123.42094196804
153616.3878956151 130592.1139641331 -37957.65643665928
155551.92944999188 128512.2440243951 -37495.01317085493
160191.2792071667 116607.2969400347 -39046.022383419935
159471.76601944902 115302.9285492756 -36608.98610131221
159087.4527369146 125051.14091276699 -39287.25275386221
159858.85141494087 129080.32860268159 -38985.08840941177
159275.9148557963 123760.9492780755 -36620.49191400408
144348.55789873732 144692.0194470999 -53929.92271385038
143152.2069556875 145685.49070738608 -51736.16754452289
144641.10760999031 143407.0370763268 -51101.267207936304
141691.4186303599 148181.2365001933 -52224.62368242915
142784.7169443936 147136.3264765112 -54190.21772397916
141746.146510255 147073.7032454923 -49576.167102519474
144953.0857700294 146843.5430664288 -49903.86674997182
147753.0743239483 140139.9440661855 -52703.91748430712
146277.6810132924 141184.0387950404 -50497.751324094585
148078.0539179194 138992.7729506238 -49868.5336858065
145997.378163834 142357.51649835688 -53311.06597065684
147241.6450529304 145639.70142729822 -52061.77384745186
148875.5609063102 142487.0339872153 -51934.38507956547
144881.0357876257 142339.4010351164 -48347.72577563618
143459.6878060121 143636.1987366039 -46180.6038629783
145109.37315632548 141400.7923799217 -45644.42838021323
143281.99469816222 144616.3886080221 -48991.362048653275
141858.87166287092 146054.9448337483 -46797.697240042355
144402.11947951702 147612.3108919736 -46816.96471078211
146595.59548070398 140139.8078851509 -47720.35609460021
148497.36404012132 137900.89411362668 -47128.071847646825
146927.29758721878 139123.49304486072 -45077.858416163064
148694.965105782 140941.6407190903 -45875.629772076165
148350.0087204968 143929.7411233846 -49047.614206922124
146495.8591985139 144400.6273549385 -46361.50810454915
140459.8965106894 150806.1683702557 -52740.96037305448
141588.9342568416 149333.4889117611 -54477.800274480425
139218.9442696312 152339.1340853442 -50654.511672368324
140373.41937622012 149655.2019316444 -50141.71476094125
139443.3654718977 153538.0421525485 -53387.36391343971
141685.40543712978 156009.791960175 -52993.467357743815
138276.193883242 155107.4908882496 -51124.23768671822
145410.5498009756 148658.65475321622 -52683.71561297808
143522.8132072617 150548.5670773882 -49741.50050652678
147598.7420022765 148360.0466051319 -49278.38273303595
143614.3910635075 151989.6222405578 -53333.81241533199
147834.94203848302 154662.17362111062 -52447.09692481463
142960.2115772834 154085.0168946074 -50947.23663436569
147885.309777373 152190.40243520102 -50308.801937714525
139092.44873995538 151161.78873358088 -47940.61958679046
140386.7679274663 148553.32081146052 -47388.18237068795
141199.48953251238 152808.5982405199 -47927.75144768506
137931.408460148 152722.624019549 -45690.478621658425
139109.018741695 150027.6250780225 -45191.911528603276
138059.0151767441 153901.83891177012 -48425.5902703335
140822.43846149172 156196.342036956 -48997.993826494225
136967.88469891832 155494.9565324655 -46156.851230792534
139271.5868110789 154852.564857332 -44979.40533428349
143971.9989909742 151204.3799317264 -45746.681808930145
147855.69757881042 150773.7103027265 -45703.038764352306
145261.0684300277 154909.89013228132 -47832.46875437963
149350.6397939581 155776.9714811814 -48607.56242425505
141914.8225881833 155792.104293616 -44857.69415945355
153403.77990441932 134971.4882254473 -53758.43136541621
151632.8954194204 135888.75549462863 -51567.50242770731
153753.5823967639 133803.3628905943 -51083.04785612756
151284.57993746948 136997.5710385927 -54296.90108260812
149601.9565945538 137992.9789597704 -52065.44188313709
151879.9810896634 140521.9566768197 -52387.86590133413
154356.2479391862 137860.30986818467 -52199.56295827956
155624.28713466242 132934.5740412967 -53198.18744756389
157740.54401543929 131063.5529710556 -52727.480655274565
155830.917801369 131827.71349051778 -50530.53085805149
157310.98631811448 134830.725792613 -49871.27927960836
156824.47208907938 135484.5005262931 -53529.06567825808
157497.4753551235 139010.362847947 -52735.48788165763
160121.5577336985 135930.82039409212 -52690.67672343392
158952.0228926714 140399.9246395854 -50128.93190106896
151994.4626022326 134793.7844122214 -48834.60588345513
154070.620278397 132737.8612442051 -48323.23301936336
150397.868545111 135803.9213523804 -46670.37815230898
152429.22701673702 133644.7451355585 -46149.93567448376
149993.3593335331 136880.8857636297 -49362.61954176964
151452.7159141259 139678.1446099653 -48784.6781370795
153782.38738893133 136550.1656477786 -48053.03676570235
152280.2500370797 139052.164010464 -45069.070794835716
156161.2290732193 130697.42329092909 -47807.85015756641
154392.3712064271 131609.8660295926 -45556.08376280955
156205.4208855671 134558.7554015572 -46328.12314774768
158795.0685025487 132047.37153136302 -46332.04361080157
155295.5807942308 139959.592667495 -49103.877568765536
157654.1997165215 139344.647326039 -46195.72562750498
160245.31046730268 136166.2482779299 -47029.81827549187
151130.0763431809 145138.5044290029 -53152.66873664296
150206.4384468408 149443.6041923233 -52196.67037101418
153809.4312465673 147056.5503915406 -51930.474738213736
151989.1854244317 154457.67745437621 -53804.104554653786
150341.82056093018 152198.9834580878 -53990.33171153209
153846.4103319175 152115.15275894542 -54040.46528550796
150567.8701616457 155046.9290142772 -51231.20869957014
152340.6412910154 152661.6829838226 -51422.00085869406
158937.87085596402 142538.7737287587 -54163.26747851262
156198.0976262546 143290.0308089678 -51501.786479035974
158602.48946177858 145968.1320403567 -51824.04859801653
158259.2723488631 147440.09402183868 -54393.34186291546
154220.7559377719 150349.42122137992 -51510.90005186266
156464.6717835568 148039.7411617984 -51912.65633298604
151490.6718469549 147629.2141761226 -49631.517258378204
153656.0517112992 144183.8392649038 -49232.94606062208
150585.585264284 143533.1295833594 -45616.80860127111
150054.27240369972 147999.771276253 -46542.90780519649
152934.0836306734 145936.0578524835 -46440.25426299812
151081.3863813685 153364.6505196842 -48813.35984168134
150132.9941641523 150590.76630094758 -48616.14788256486
152913.4524754692 151020.81574913918 -49000.341929174996
151627.4788283279 151703.5283638677 -46399.340528986126
149860.8602962679 154061.593257056 -46280.71114653324
153505.9208291854 149489.5754064913 -46748.85908397156
157482.68774914148 142504.3370443396 -48145.274058892246
159163.0805226695 144695.685232133 -49294.65844115505
154888.5403294835 142374.52657339632 -45747.87041488658
159688.1881301112 143449.7053225381 -46560.377030313495
154846.68009474958 148757.4648275147 -49157.90008764885
156983.2097121831 146637.5595180837 -49438.48445609392
155500.2220561926 147324.2536549012 -46965.08008969139
157475.3800811788 145369.1001690671 -46889.93132338391
143640.68354482358 142700.99058559048 -43472.32934248191
142228.8205252563 144087.0996892285 -41298.776707494224
143969.1649171171 141719.36708283308 -40748.07958402756
142012.4856233451 145049.3680285381 -44012.49162211483
140481.49475090968 147515.6986782866 -44615.96939392908
144240.15029854 145921.1398692904 -44612.65292049599
140633.9595261194 146474.59363956322 -41862.20476146615
145415.45602762012 140360.7708582994 -42950.47876807409
147244.1819344215 138105.04335552512 -42352.72908609059
145768.3811355687 139440.7133122192 -40176.35601081092
147646.8092551168 146707.5924578168 -43857.43015682603
144951.1021676722 145952.0428375507 -41186.27408114379
147675.51055093302 143346.7768304641 -42311.86672867692
142578.3267019728 143121.72198510251 -38538.65817417137
141214.8108073414 144544.39079797728 -36326.945894969955
142912.4861563093 142188.1449238685 -35770.07403081915
139377.0342257729 147917.0985327953 -39653.53222191344
140911.0638850641 145504.9808357986 -39084.815168552755
139604.3560242122 146963.5726361765 -36893.27809431427
142907.6123141808 147914.6101445673 -35892.586374559105
147623.8846237558 137207.0253324912 -39552.72039602119
146122.5527476073 138559.48449200578 -37418.30502616387
148002.3257529242 136299.30192309208 -36761.685679306014
144325.3615512714 140801.5151690896 -37952.86134546181
145244.15391314842 143388.79494527107 -38747.969172495956
147882.2012668221 141123.04058764077 -39263.68839932731
144201.9072669852 145331.852694406 -37202.73205023242
145974.2408234708 143004.9798128594 -35576.40189099296
137860.4542263698 151592.98915533468 -42972.29232465332
141081.3027266388 152217.49999663522 -44752.38555399436
137918.5237286379 150491.29315796052 -40215.0529990369
139169.76692848268 148960.6826797558 -42447.45493132627
136829.1116732492 154310.95861849308 -43439.86126120403
135714.6166267407 155909.6246918408 -41139.154707315094
136692.17491983678 153146.1180550081 -40719.46510616165
139352.8928546838 154108.3297710384 -41042.13476564052
142851.66345950429 148968.29678403158 -43071.57886794536
142177.3136823883 152249.1856976557 -41555.059652940596
148387.943519752 149560.2509868064 -41643.573815487005
146146.80748415441 152160.3598832505 -41100.616526712605
145511.5205322934 154660.56762123428 -44429.37656479233
148597.43174788821 154720.0473688681 -43305.58463811667
147571.4810774691 155336.6278618545 -40480.652189603294
136753.3333944255 152039.29658926852 -37973.52481233418
140516.5465745487 150543.30266225178 -38818.064504910086
138110.4448589007 149447.03229418432 -37463.72053549233
139848.4759597325 150702.7692847933 -35628.54790470642
135645.7811854952 154744.0937634801 -38462.183297665586
140376.6493386669 154423.8761181195 -37823.775360732005
135634.4474544661 153610.1283910929 -35724.413978459954
143429.68869565142 148643.7543086433 -39441.368984207
148028.70587706452 148522.87631927128 -38178.830863059906
143260.5155316162 152038.1574099015 -37936.801586551606
146133.60261566128 151005.9247452589 -36629.709048184355
143686.3873513613 155490.8677848762 -39030.528418124115
147959.570231058 153951.33857046592 -37909.9405469427
143975.04081598978 154384.17543520938 -35530.82905885059
146675.81212148638 155056.3370840707 -35353.72406866461
150763.98352448232 134705.6351340818 -43949.37054761546
152716.2593737233 132592.289877036 -43363.885606557626
151100.1843466188 133768.5239008466 -41243.55889646802
153156.4171255171 131569.9874713378 -40614.69517022396
153631.56632203478 134529.3714344139 -41331.22742406714
148781.6862954737 136934.4757074372 -44516.71295416595
153667.6322615121 135286.991201545 -44437.68894125394
149154.3496269238 135905.6585848742 -41762.67639627052
149490.1239558584 139917.7069256844 -42824.1442240158
152272.0579907361 137231.12321208668 -41716.34463303066
159256.8108211226 135272.2781992156 -43763.65917465289
156306.1165144089 133360.4574344364 -42726.358644362736
159963.9883257873 131043.58997803812 -43104.813265482466
155973.5988671373 137672.47004271642 -43188.94375817164
158118.75726170858 140380.1956239573 -42613.01500544077
159413.273122917 137910.1479691973 -40705.407918780875
149527.26820986002 135016.65608697748 -38943.35022525902
151561.7229746192 132812.0438043275 -38574.106317417114
149925.9100596608 134094.2327103634 -36225.25465340566
151869.35296135722 131933.4571245641 -35701.223149868936
150309.33552865512 138052.8322488247 -39730.5000497199
152089.2623631253 136018.442108181 -37893.293402990974
150316.9128430668 139486.0599404824 -37157.11490595119
153407.1482199454 138796.9162813713 -35701.05815750078
155587.4175912356 132239.97245488578 -39549.966785103454
160047.3972813476 133990.4234991554 -39840.90239456684
154895.3067861864 133923.7716167988 -35869.70650394053
157429.0850060727 132079.0949622335 -37122.18356108739
155404.60970813502 139669.0569519222 -39179.052522452206
155826.2126995323 135817.2960096246 -38944.973890733825
159482.0404988667 137124.78077854562 -37026.161712000525
160326.61236368012 140604.23007205527 -36397.75090116501
150601.1500086575 148122.5573087448 -43585.14342105461
152559.7967619882 144238.2582342209 -42673.511857285484
150410.568764888 146585.64868414332 -41069.3216875562
152335.5964521963 149255.57055955808 -41855.32795874374
150351.5318999403 152451.8084680937 -43882.774983030475
152107.37577510782 150296.628839351 -44258.712905789114
149406.0728990143 152796.2705637644 -40892.49230624894
150951.5055560638 151069.4896942458 -42118.85849124458
157956.9958215497 144128.2129416864 -44230.41617893462
160265.93789196908 142275.359595585 -43882.08759605082
155198.2889046372 141848.5784839746 -42450.72396722671
158543.4888265077 142965.45661705098 -41549.16086633548
153887.7649456812 148228.1426797154 -44451.55439053753
155834.99733437732 146156.739269816 -44514.212821121495
154255.5929324367 147079.3290628044 -41972.02245110012
156336.0361441398 144943.2700001868 -41865.40495649081
152056.3328607864 141232.19607976032 -40444.81070539625
148800.9134718428 145366.7962057167 -37962.31770711984
153348.0215817215 146845.25556950562 -37071.41716094215
152059.95871284071 143960.4087257807 -38182.3607516969
150997.82066027648 150415.2019212408 -39964.76964877506
152871.71852639908 148061.44975930412 -39705.134866217195
149669.61298299508 151512.3347582564 -37756.03889027493
151439.3328505727 149121.23980490462 -37316.11765148626
159200.4427416601 141887.8959219463 -38848.63065376528
154365.3489654579 141912.31921137232 -36265.60949661847
157714.4968055466 142459.1921402801 -36132.44373194206
154814.8868598372 145867.50055366388 -39474.60163676332
156918.16581118532 143775.5628195761 -39185.54996678878
155378.2530742612 144680.4076298504 -36799.45245612871
135340.16393215422 157602.2261894817 -70503.53862666673
133094.53264472279 158179.6192606613 -68558.1137286264
134708.9910942858 160346.759936451 -69676.79799429134
133858.1541749117 163205.09445693178 -68602.52100615586
137490.0399349051 156988.4286517282 -72377.41410694977
136818.5493278628 159840.7224333963 -71509.57328250038
138198.82691521078 162243.4427237965 -72388.33784291097
135991.769312945 162748.7243203299 -70467.84205527024
130993.6682600186 158790.2655002503 -66506.5329738473
128974.0409039188 159372.58072737482 -64393.672313587755
129520.54108231129 156637.9821725931 -65280.99180473028
132398.259702379 160992.7505185921 -67620.58265526984
130423.99154563481 161542.8590814808 -65548.77272908713
135824.9028490998 158686.8131247943 -67048.21499416325
134929.2201582595 157762.3324532154 -63825.90382417959
137688.7184788798 157255.4321206781 -64988.75169885811
135086.0181373414 162411.7159290655 -66224.36619662083
138274.5453100861 162608.5109534442 -66959.33504510732
136779.11455209242 160272.15658391028 -63946.97749877133
135300.08630974608 165405.8761247909 -69503.78844432224
133142.9389151001 165935.8308727143 -67519.07314894361
134744.6507151383 168152.0138200209 -68528.45667608337
134296.1726141715 170905.0458486686 -67443.11504204902
137537.5145225241 164925.9963632213 -71470.92707249911
136967.4552630326 167597.66868858488 -70534.96783566961
136273.737415874 170322.8527306479 -69351.77904076724
131806.4191023311 163724.3606317353 -66587.41231583795
129846.4172490194 164188.36625586372 -64518.85044628726
131153.3080801298 166373.2252189367 -65404.743395493315
132395.9325682641 171281.471005619 -65377.05969484098
130690.9859819607 169079.0050048893 -64275.50875984258
136054.2129812758 165578.27715009009 -65265.45118774524
133208.4218971711 164724.7964003538 -64234.40371679557
132693.1172411459 168633.3320612403 -66436.41714511448
136161.40848920718 169737.2437020273 -65174.6234554362
141399.775739531 158593.4341280304 -75339.15048232814
139698.54225619242 156370.6639260626 -74303.01840207793
139019.32254620228 159294.1774174792 -73415.06814468716
140486.3881325862 161603.399752233 -74386.83774783602
140639.94551048172 159204.51956062161 -71647.48275892767
143778.5439147858 157998.7393747741 -76963.68259568402
143979.70358591308 156883.99176512248 -73112.94102624693
142789.94982470438 161114.2937494939 -76033.30469667217
144425.8090032051 163389.233858363 -76905.61128898028
145176.21671161958 160552.5600938502 -77663.28101557922
143249.2965447935 160511.5632443398 -72874.26022228568
138553.2961949111 159328.7426463851 -68209.8913378247
140910.2118948739 156463.5843364113 -69485.55215015398
139594.69161350152 159339.1114322955 -64100.70309303481
140386.9940408835 156710.143442298 -64165.91633732604
140516.35089618072 162882.1778815361 -71035.51090775464
140892.78191822462 161749.0776502989 -65390.83777812233
144102.4861262288 158992.12959274108 -69312.55222304417
142610.31007817332 158932.2112020543 -65564.24215367304
142077.7187581871 161721.7530456923 -68552.32668150496
144455.3184119998 161730.5816001174 -65925.59969709448
141373.9881195162 166642.1428734805 -74454.18309072693
139202.1381865728 167098.93916963 -72531.14980463403
139746.57762113112 164444.2520238332 -73409.3228320242
140839.5329350706 169259.9057954374 -73511.67858779663
138601.64049641468 169737.9790540457 -71482.41279554227
140266.1840560662 171780.78773098427 -72401.16150389246
142001.53687524342 163914.6523068164 -75244.00226683053
143753.2762851532 166155.35294697262 -76165.43708805264
142674.5305370847 166345.9039886766 -72699.84882690852
143942.4165119562 164108.8084365626 -71134.6244240144
143100.3472090363 168802.1314351625 -75364.10704316913
144842.0469488548 171063.8198383059 -76133.34297516942
142465.0629518463 171460.9598597631 -74376.89937518758
140430.7761290505 166097.8000383245 -69530.32786058371
138673.7092016396 167258.7554077841 -66540.21031635115
140874.56224470199 164368.9121769249 -65731.50657156104
138728.6931018744 169338.5233078406 -68677.79272568565
138806.74553364262 171752.88321879192 -66600.08142010428
144637.5127802168 165194.2258198071 -66883.57192921829
145230.71741203172 167070.03537969562 -69788.80380611739
142991.7553426073 165816.8468050812 -63783.80644016044
142861.1446806863 169826.82507167 -71066.6688591361
142147.47834686012 168472.70343814712 -67147.78241200258
126966.78678616771 159959.0114141423 -62283.80055332383
127453.8265814973 157142.5980249384 -63130.281234918846
125428.3881397563 157726.0222805114 -61023.92200652456
126503.1417323725 162760.35718314402 -61384.955960779305
124570.9949063354 163328.3522602261 -59190.10111303214
124946.472402149 160536.1327972661 -60158.34474204456
132286.5370041522 158131.95998749792 -62468.62387393211
129995.835209956 158271.9910999014 -60583.330616291474
128474.55111199988 162105.8220529125 -63494.28064380074
131561.504712588 160719.1594088865 -61200.825851663045
129249.0183476648 160873.12609942918 -59372.29232060184
130877.5990657015 163282.88456944752 -59867.20682853084
123500.59300163841 158297.7123699472 -58824.757498419676
120438.9008797126 156637.1697426267 -55350.97918846165
121772.0639664192 158804.79553673102 -56664.68654588679
122775.34778607309 163887.8964388074 -56906.087333493095
123112.1471881367 161098.2808046766 -57883.462349308844
121367.40775123119 161634.79042202662 -55688.700619327254
127445.0591363129 158211.2232387837 -58476.11411117982
125219.7593951714 156724.8074700498 -56588.77641725466
125471.4352944448 159549.98237907968 -56272.72055403721
127194.8798076936 160955.48420657121 -57717.68717123032
128358.36228273419 163691.1930473614 -57897.71606935813
125933.8942168515 162505.5572537719 -55936.194675947416
128023.9259972026 164895.88806136601 -62533.66403503313
126109.3595666073 165568.26988693041 -60450.85105181851
127621.9250511682 167663.6145998545 -61500.21435034219
125809.6444768216 168331.6118259421 -59399.4226406193
127349.5160412599 170529.2577299216 -60427.73184560885
129420.93916069521 166971.8173378573 -63505.0129216813
132748.6204569776 165821.3182595512 -60016.290604517
129100.37684176522 169819.8027557609 -62438.467020415046
130608.26676398989 171897.0287493224 -63346.49788555598
131202.9847185606 168865.17363779712 -61041.015830575125
124263.63707475021 166107.0997066248 -58162.65750594112
122495.4932032592 166679.1977570042 -55878.224880780675
127313.2099834711 168188.9837294977 -54891.30273589424
126551.0856796737 165394.1033926723 -55504.9504527594
125637.8558658726 171076.4773432272 -58258.04964206627
123872.7787828666 171612.1151707774 -55937.813199902404
124019.5262890503 168871.2659587111 -57081.9281643682
130258.25928451701 165507.2988597292 -58625.05354456773
131307.7466742327 167783.0430713323 -58256.235399707795
128691.3871755066 166633.8723382497 -57014.239998563884
129922.52031345751 171551.1122443742 -58640.111540492784
132629.5878034814 170307.1476530372 -57371.23663313446
129698.54924842679 169383.7043034134 -56196.44905025716
130880.27552360338 171869.56235712758 -55081.52371852658
133987.4321892212 160507.4826434273 -62916.28159418253
138327.0135355042 159906.9003220798 -59967.980721727596
135516.1244239745 162698.6886197995 -62934.55086886421
137962.8065001352 162803.18104858277 -63237.49952767015
133251.0689316212 163103.00367307162 -61539.68417119697
137703.6982220914 162787.4883134477 -60809.85212318041
139351.2669929394 158084.3188739258 -61734.8505152725
141999.0151682902 158856.4671766441 -61653.880621093245
143841.61971665348 156733.3571630032 -59565.45580786007
138689.8935426017 160823.8941124518 -62341.98857410111
142172.7523248331 162307.2861000474 -62737.309032122714
140716.93494589202 162367.7471669724 -59692.22504986864
138674.30148126849 158219.795453487 -59001.695035332436
139481.8026615906 156268.5491724741 -59197.78380852249
137691.0148539177 159914.7802516366 -57215.80974544463
138502.64308889522 157509.5884283423 -56787.21354329587
137452.1772467235 161571.1043007728 -58553.344613687084
136690.7428871065 162727.1897051641 -56721.38647694451
138875.4802022794 163779.1433625089 -55946.64285751945
140619.2621777622 159147.0233891848 -58925.56487136
143260.5967478432 160135.3183951359 -57867.76268720833
141923.724709269 157306.17114787461 -56383.71555582395
