931
185972.1970584858 179594.63025324582 -3305.481351316224
177842.4609356953 172621.8804133435 -2898.6066902060543
179899.7156614671 173798.5593077901 -1739.959299525201
180933.879281235 172289.8418854666 -2297.398895425774
181328.5565979361 175330.8752504754 -3024.2812504632084
178412.1006324861 178144.7608189006 -2624.954273450113
185860.33143235222 172179.1722920293 -2835.372207757059
183315.9163011716 172109.5226853467 -1827.234365867693
184360.5025870002 175138.6730025942 -2890.799355177617
182270.8519950425 179227.5122614045 -2651.318654570419
180094.058882743 181890.4053729081 -3915.435806488029
179056.80634591228 187010.2565517252 -3635.524762573584
177737.78738878478 190765.5479017781 -3369.633791521717
181648.5010172953 191832.87942731308 -3134.196428846412
186546.1419033529 183792.74542747161 -3326.686322596249
187038.4170383838 187857.8314782223 -3613.337137632088
183732.29870424172 189208.4287927754 -2992.849300152554
177759.4335728548 183687.90156809392 -2202.047709136915
182862.5591684745 184236.4317842971 -2509.386028045261
186496.9463366165 189518.89249504238 -1589.6653456408021
187011.64233986838 191765.188367552 -2712.0626304171196
184806.80145109282 193482.0447225558 -1924.298745350008
190663.38834576108 172482.77757253379 -5187.161015849622
190141.2282575695 177621.58477609348 -5010.091759896186
193070.45892425778 178872.9038816377 -3795.9917951106663
193855.0218308692 172571.5335532841 -5122.251944363159
196512.1509660603 172684.5403174459 -5043.9274126943255
195902.6634583325 178325.45466643898 -4640.150172778002
189290.3162752775 172152.9148670464 -2648.9504993202263
187797.4254645224 175716.8303108748 -2937.995265656836
190566.2700598735 178015.0925215344 -2077.9218597204017
192300.3537548829 172201.4058838042 -2601.567515990212
195360.8578491317 172286.5398528947 -2564.990863258419
196391.46110088838 175570.173211775 -2962.4223071756333
192315.2134475408 174654.0745127459 -2364.196605803146
191501.8904622068 189794.1433840545 -5432.0516090385745
189218.020563396 190703.3365881582 -4400.250348044178
193642.7405572533 184582.57196432832 -4194.665386908764
195944.3508521127 188333.50522900058 -4859.311312298017
193597.9831182241 188776.353599641 -4397.135039543632
190568.2748014275 186715.928368531 -2948.697599569257
189889.682727846 181863.3597519857 -2845.3116017122093
191811.15435508802 189001.0848757976 -2735.663121689223
189381.5429249899 189983.8528494948 -1919.156200901794
195258.55330653288 181969.78231653842 -2272.428824054543
194832.2497035598 187947.8505830892 -2442.308416041328
195936.2644397963 185610.606423069 -2177.470234163335
182459.4517338431 173569.8429244815 -1452.025341249121
185477.08346834988 173374.44127558148 -1391.507550757308
178795.2450721816 172110.5901147326 0.0
181786.298949423 171931.45906155498 0.0
180315.9188012118 175224.3102686714 0.0
178844.0556254565 180541.1020022704 0.0
178049.24288517778 177757.1069972564 0.0
181594.2033524517 181079.6840706456 0.0
180687.2128356809 178382.3182923797 0.0
183494.9554358997 174366.63231455028 0.0
182559.1047718715 176740.51716056868 0.0
184781.2502699502 171835.5243382917 0.0
185062.8113156516 176746.5605567556 0.0
186399.7763064597 174276.77334461338 0.0
184410.0715917072 181650.3685793735 0.0
183427.1851519931 179006.2543545847 0.0
186345.9868851358 179449.8224598346 0.0
184214.1679376273 191540.33969761658 -1171.3919080343899
177866.2607367814 185221.3063025786 0.0
179712.7660347784 183165.9050637414 0.0
180584.6218389603 185943.8126386701 0.0
178789.20580106898 187891.99078428358 0.0
177499.8488405117 192325.62776885022 0.0
179657.17359160748 191289.32521958562 0.0
181563.9156544034 188841.3657224114 0.0
182493.4294424154 183772.6543378979 0.0
183362.5964687276 186546.73258657852 0.0
185324.0345453171 184247.053023024 0.0
185760.81435942752 186766.05461669332 0.0
182591.87933038542 191636.1739757099 0.0
185566.0019958236 192162.2218775667 0.0
185071.0803462627 189205.1486467703 0.0
188404.86358426098 173421.0585752915 -1387.999246536906
196046.9014853245 173394.55367978849 -1419.364566422501
187777.6965864283 171808.8187847264 0.0
189265.4074549113 174410.0031281619 0.0
190774.2518425689 171821.0202717931 0.0
189053.9353692027 179861.9111575414 0.0
188256.580372543 176921.72602316132 0.0
190537.6408111633 178068.5794261501 0.0
190690.3041084276 176085.634574727 0.0
193770.2911627052 171877.5841278182 0.0
192333.4994103668 174440.8676030173 0.0
195214.9103919906 173916.0844505271 0.0
191944.3991115581 180241.683781619 0.0
192659.98314696178 177401.6639359534 0.0
195165.181383141 179069.7586067393 0.0
195163.7164582548 176466.2028862943 0.0
188646.78508204612 188668.5394966276 -1336.7275661703559
187234.6974274993 182127.6437523506 0.0
188338.2065828689 184618.8789761924 0.0
189434.9839097146 182135.4314999241 0.0
187914.3137268119 190383.73078525972 0.0
188151.3742719244 187645.93186970358 0.0
190473.9953695653 188925.9249030642 0.0
190892.1519051406 186056.05367767048 0.0
191642.50509137512 183318.1685673653 0.0
196710.3117628267 184054.9926463074 0.0
194653.0798843455 182045.1490261433 0.0
193200.6350102259 187811.64141108768 0.0
193845.0687304204 185022.95365121902 0.0
196047.6085668222 187055.06985591922 0.0
162632.0393635041 197309.0808890497 -14968.26460312251
162235.10369381588 200227.25458293018 -14617.27534125742
167079.82454160383 196835.5657377885 -14322.36632382531
164793.2729352836 199086.4398538264 -13352.83068075879
164581.601113735 202618.8927853773 -14467.770287436719
162215.34775200518 195452.89361664208 -12687.712041479059
161786.64929697872 198369.5289309034 -12325.872207347069
161455.8178376429 201289.5182782395 -11932.99913136191
164771.11938852328 194457.3602440899 -12887.55684403117
167460.9321362895 194279.16594914193 -11854.60418871699
164779.8531056094 196997.42059344688 -10464.399636300452
167151.15655165512 202400.0297117564 -12107.79661742974
161956.5314980548 203156.447498816 -14187.595124419691
161824.3047011721 206089.3011924925 -13740.48123930658
161848.5705844806 209018.1965713048 -13251.31814371257
165959.8039641085 205972.4388375734 -15171.336362464039
164676.7738258714 208984.71129587592 -13247.98828918397
165184.00160969442 212011.447670307 -14667.035288754541
161231.37092550372 204219.1691629245 -11511.152926959801
161132.5938134474 207151.9605046617 -11055.250500402799
162052.6831954122 211931.4131446873 -12713.533640752781
161209.5683931137 210064.5723908186 -10624.04638782889
164257.9474789996 204681.4174918908 -11680.7396522977
166004.52687325818 212061.081434895 -11434.74334572986
170282.5090361454 200748.51000022452 -13137.79172048423
172295.0955558045 203742.50244572098 -15093.17265541457
174105.53827861138 197063.6232246091 -13722.62293824346
177198.2850347181 194126.33057209378 -13581.11272424082
174610.28516456802 200404.9788372555 -14446.781285268451
170836.385015738 196231.5127092214 -12145.190728228688
176754.3682918986 200332.6782160951 -10957.5660036248
175304.6868515181 203687.9277627913 -11943.4201122902
169136.7381460272 209631.3567362682 -14467.12695004741
173776.516541012 207979.0636896345 -14673.12428181651
177027.7187549231 210562.3293146709 -15167.80504191345
168592.3655835978 205837.10175045358 -12337.39025357669
169061.9923945367 209645.40011555472 -10919.785423944299
177051.9049246381 207895.28376208362 -12744.45679041895
172744.8897754234 207745.3277215714 -10504.28481725882
174010.3470669591 211146.2907510493 -12310.76978892515
161356.382064022 196512.4828796138 -10048.91348579768
160984.2337404463 199409.01552815732 -9693.296229187627
160693.9246260517 202355.90566750322 -9276.018420045932
164716.0561640761 194291.0321715877 -8380.665964030908
164237.8789682784 201053.94766697258 -9490.493326867218
160982.7773887262 194578.31121292448 -7719.539190135714
160604.7085967008 197565.5319781913 -7404.16105014321
160318.0934694999 200450.8939157516 -7148.204960987095
163039.5927999836 197533.6851949128 -6905.01192237414
167208.6171986648 203114.9220336208 -5807.636539983764
160517.62647510218 205287.65592164503 -8829.452500716463
160500.1349735708 208231.2780704281 -8414.534095854124
163092.6915505745 207129.1861385883 -7988.861182624834
166618.28379560378 204488.98651391492 -9207.429519921923
165706.93992174612 207843.29040911022 -10174.64283747661
164267.5523353404 210542.5674401737 -9247.640138787647
160096.05050479228 203377.8824744069 -6794.808664216899
160022.3384911857 206346.23339261502 -6449.770076502323
160650.8098347144 211130.1590458524 -7862.41133961356
162924.78833975532 203635.7795839303 -6751.0071908448535
166638.94297656178 207143.1977095929 -6407.866697041534
162789.0760514528 211133.3285607571 -6753.675553799683
168728.6505901605 194837.5193583521 -8106.682119914471
168544.87844730512 198491.5551509508 -10335.52931074679
169332.385751432 201750.04391576498 -8635.76664832956
175838.918321073 196920.5445029311 -9695.77671615266
172776.3810884763 199704.0860618373 -10410.19507990756
173926.2819601911 202057.0123109513 -8585.601484742529
172594.1594375786 196580.6746458908 -7197.3499356823095
167433.7196006989 198386.09653660838 -6853.106839735034
170796.3344306536 199704.6297353785 -6176.005777782241
177272.9818061009 196452.77226404808 -6140.011636227509
175465.8281336572 199512.2172405027 -6458.216869084332
171364.456372761 204084.3197081654 -10142.236448472939
167340.92410616152 210773.3064341193 -8390.295340241777
177475.2205761688 206104.27308282247 -9983.02916940836
176815.63253821302 209433.2257996907 -9221.509582860803
169355.4000357023 206258.76940263872 -7854.315357533845
172193.3831710298 206840.6960726568 -6058.937071011063
170424.0335808649 209956.9550052351 -6589.3226971980475
175070.51390819417 205706.797482041 -7538.197919814411
174419.9616455819 211863.6759118699 -8075.949328566846
163722.1940775077 216510.9960136477 -14972.20135352664
162978.8384690746 213771.28862347952 -14852.38100993864
164400.9146135649 219349.99686714972 -13810.24619517958
169285.6686961003 213016.91082297819 -13401.227237846999
166035.1037566644 215596.8257306354 -14220.35266589125
162544.9294331608 214865.83786939998 -12372.021603873889
163130.2292349641 217589.78038810202 -11658.77980368169
163793.14732304012 219900.86786330742 -10965.596430455189
170027.97404291038 216145.1399662566 -12079.65452600267
167180.3737577117 218613.42598458278 -12264.295107467
166770.0705568922 223804.3943239552 -13908.74828725324
170062.1058212725 220723.3288885527 -14716.15046846253
169653.0068705493 224223.7614007002 -13096.59890792765
169829.6451552584 227928.8294879038 -13715.92882593475
165186.55538517318 221799.6545822633 -12560.26703988016
166099.4020606149 224174.7573405046 -11063.29607577559
168868.0647587066 221270.19579294862 -11379.10784222087
167885.0447804791 226116.7719606247 -12430.76055449165
169081.5669810296 228265.8676221233 -10873.720358366469
173440.20811242482 214814.2634385135 -12666.65620368165
172119.43723630032 222873.8139108357 -12539.875274732349
174412.0117674513 220524.58532131082 -12317.26565198524
177515.694103804 213827.133546952 -12779.186677951391
176209.1107238477 217923.8992904576 -13959.97242884898
171974.5338748004 218680.6792122736 -11224.357001139751
176450.7152299956 216910.2126847618 -10521.541345918511
176073.8891911947 224145.4486199628 -11480.70670305446
171914.3893704977 229604.78584883068 -14935.24723192156
174006.7213178257 228547.0264711889 -14472.14822765398
173423.4735701303 231524.06159360232 -13244.729959434419
177106.2634571509 225473.91401230748 -14560.64782161851
175794.48892571699 232925.26356435 -14355.67484688347
173661.0048445203 228079.8077652473 -11440.18458182268
171173.3271984636 229972.7031252437 -12083.10714093047
175808.9000703586 230631.1728691955 -12499.25529636266
176962.4453941728 227915.6735826327 -11137.90807133554
177459.1742853654 234532.0085289787 -12546.037840893741
175044.59044115173 233305.4334627985 -11507.366451263939
161493.50195654362 212988.0174683334 -10093.11187208265
161976.3783757342 215759.31402744682 -9543.112540005875
162720.736211592 218149.4267083337 -9532.474810537879
167089.8338242067 214769.0693766828 -9942.029407837364
164925.3900203081 217187.75681153368 -9283.942341413658
164143.4935289248 213980.4933286288 -7636.46889890976
161009.1028321939 214003.0374152313 -7351.02781570441
161815.1266566276 217327.9349425649 -7061.261589375446
167874.6124301247 213260.1064677752 -6207.643581828284
169049.0564177749 217159.6610977669 -8373.6236067937
164468.436317094 222133.93337655172 -9623.525835282766
163078.8896309809 220117.3262939964 -8205.993362602117
165433.3891184093 224537.41608992728 -8170.462795828421
166708.2060409822 220189.8734805189 -8372.110005220096
167193.0949993866 226492.2226195893 -9545.167795189613
169617.1188536394 223646.00802252142 -9155.8081604427
163892.3948795963 222458.9854672142 -6743.7175504962715
167316.6327715844 223380.9577656745 -6508.702863394853
168436.6631404095 228659.1610710693 -8047.542004680455
166596.2346014019 226731.4852484391 -6842.320308114616
170520.4563147975 212950.9666109595 -9321.366158211455
172908.39572981308 215745.86230784582 -8489.161107074211
173003.6733811527 222010.9178568652 -9682.394648212037
177309.16871080568 213394.79299516778 -9490.362837312397
176763.33924114518 220848.0186056525 -9791.718635260442
174502.9862232793 218852.45864047768 -8397.206946055112
170872.0080688819 219968.1233314545 -6607.415449082423
173518.24512547252 222779.3655844517 -6039.994448818405
176491.51708280432 214999.9034162263 -6162.529080174543
171263.0979016572 226293.8161013145 -10285.24832626983
172686.6235058608 231886.4578447075 -10390.32769330836
170451.0664546759 230320.18376709102 -9225.667942716726
175893.3760191766 231093.4782506784 -9348.055548717892
176749.7808020853 234967.0982198771 -9732.007265002654
174294.68546576588 233685.6811063912 -8658.794312989183
170304.8753135602 226984.0824725249 -6317.409792112601
171982.76905293888 232198.1981058495 -7534.196299515378
169922.34200383708 230616.435989275 -6560.250742197715
173514.0538923856 228864.88473620618 -7744.421907552342
175209.8176938988 225394.64239970662 -8083.64638302285
177608.3451720841 228251.5457354019 -6320.507697974272
176045.4106949499 235277.2056949455 -6863.298180299232
177742.80625474072 201133.5565645761 -14750.877306859478
180710.44876017148 199964.8530699591 -14198.15161393703
177797.4960056984 197856.8651790474 -13091.14400459136
180124.5597045591 205864.13869105722 -13106.999179622371
181469.99568719222 196795.233156571 -14156.216415536861
184022.3819634887 194539.77166660893 -13239.87385272267
183611.91708223062 202103.2776610989 -14189.9003345718
183975.8921049025 199459.5275312107 -12968.145483395221
180368.29903045238 199098.9159022402 -10936.379787202419
179842.0049757205 202746.6939320607 -11922.30068317483
182985.6301283444 201711.4606546041 -11419.207408557231
182329.7365010188 196315.8153723406 -10830.890307980919
183052.5650395685 204420.0778143549 -12524.410780116421
182751.49098464788 206724.5818205743 -10735.83821018934
179314.4537368593 216383.2002156848 -14636.73164508098
180194.61032793002 212650.8867538783 -14461.52715147156
178698.95523149832 221031.7233852677 -13736.6149078279
183506.97688235162 207125.86826819752 -13483.536886184529
181006.1742446275 209598.5685753354 -13054.11040021658
181872.1831175384 218240.5781483886 -14285.74208177168
178023.9326890021 210712.8022182883 -11935.90302616854
179806.6313252416 218968.25159978142 -11115.92621295584
183569.0332595692 209396.3132436699 -11693.97684317062
181796.5997029399 214988.2112453061 -11143.03521924673
183663.1318147109 220597.1909972727 -12451.98201256236
184411.1022190397 209773.9864645201 -14436.608187463531
185444.1212898097 197391.7907901271 -14491.09330084626
185729.0480913982 212271.2857241026 -15174.94979903531
184868.22585783552 197016.35906383852 -11609.58511611328
184839.95627795928 211962.9065851807 -12515.18191661687
186798.0090909299 195105.5782751716 -13078.92061463304
186508.2004345904 214373.3472503359 -12992.98869252446
185541.2237830398 217745.2520576432 -14046.33408437498
190939.79027678448 217758.9870896728 -14038.21681291043
196581.69662657432 219070.9548737498 -14357.717616612379
193660.1047563666 218722.6422644659 -14267.448166833181
188471.9918438938 216461.9830535422 -12865.77969050498
189807.9730366771 217779.7195394462 -11440.9335461869
187315.19995130837 219414.7040491057 -11821.453953355362
192288.21520643457 218852.49716633128 -11745.62893968256
195078.853753798 219458.89441138288 -11866.16494084088
179070.3754743319 195536.0130666943 -10268.52224969282
180063.8341744879 205591.50038619878 -8947.058625911053
183388.0674831834 199066.0574968279 -10120.22316979913
184306.9468840113 196638.4048143889 -8788.34480058945
182332.4836346452 203998.5171756583 -9648.481544721886
182332.7688565324 201356.08765331758 -8567.77231372743
179520.8824944483 199099.43777295089 -7512.774993486675
181018.4740856738 196537.1379398004 -7372.076945057288
178206.0549832272 203195.1256106627 -7655.875023639901
182798.211295138 198693.8384543311 -7279.712303401674
183729.6964187408 196263.8048677737 -5895.00872894235
181955.29047778042 206638.8064697836 -7655.072189712516
181673.1812744278 203692.7394802164 -6997.936179219682
180106.57274252738 208385.0946819254 -9819.146682298464
180765.67665153832 211376.0839454314 -10012.64060907722
183956.51401819917 211693.38465479648 -9723.31063561232
182755.7338724138 209049.4306452325 -8950.371722329117
183728.0969610741 218205.3161787323 -10064.73176750419
178900.8197172269 207435.7929118005 -6534.982127108866
179094.3761112405 210745.0657338534 -6497.5973575604485
179060.58009047582 217605.5045639723 -7466.634991474657
180930.0638584526 213562.2568111259 -7068.808532707698
184349.5592805739 213554.9668722268 -7339.967253140964
182214.0715914985 209052.3424516255 -6812.924754560292
182948.4095713413 211020.94385980518 -7053.169463714754
183139.5443379694 216476.1805508355 -6968.317439252163
181822.1400342664 220053.4492024542 -6615.973780657647
185523.1606592823 214182.4143312581 -10076.984827072509
186163.3754890161 194820.0067547544 -10208.11897238247
185591.1657952724 194446.53281787588 -7286.285220011297
187514.4470067941 216473.0154903363 -9992.254703125544
189029.0783661573 217783.66235251512 -9551.564707293344
188727.78699151042 220580.2161691329 -9341.874628768697
190763.1115866558 218837.7499756788 -9163.249285302662
193568.892171936 219718.15411627528 -9281.811888791291
196493.45432812878 220042.5967360199 -9333.756673750766
186133.7950865677 215871.6135297708 -7466.131899773614
185915.6643119942 219153.995106743 -7727.066815033148
188384.5447513384 217875.70774985538 -7538.883268561893
190424.7011530948 219205.494073265 -6831.780612717093
195149.595922039 220350.9434123571 -7181.047778204083
192454.13283160992 219876.33166332592 -7064.933664252798
181153.98402277048 229569.30369508232 -14856.312921068558
177685.9962178807 229952.0077296588 -15181.48545077149
186326.9153965227 221822.176765797 -15213.32520267054
183757.0641900139 227987.27476031042 -13531.20637667118
180489.7058912356 222770.91081148668 -11272.54039012614
180028.3773833075 226659.7716676224 -12749.34027032769
179919.6473612996 229617.8652944995 -10864.52127457753
183575.8447144161 223807.0246279139 -12365.16024236971
186768.76034770437 223655.518919408 -12089.42084313741
186054.9155155829 230738.8557750611 -12011.84655321777
182880.94437206892 234174.3376245879 -13601.3419905125
178305.2554186164 234222.00584304368 -15201.11630251801
186415.7746975233 234765.3370969636 -13797.40887803014
183751.06670886528 236708.3528915 -15135.911050178609
186590.9958757642 237561.5239064199 -15047.89224822349
178765.2420610445 232575.7577817301 -12159.39685772864
179571.2179390291 235453.48325105952 -13280.47751666242
179279.4471180397 235999.7674003976 -10864.346517008129
182421.6539295162 231445.1750084749 -12623.7661576817
184891.300769861 237698.61692171448 -12656.46662185403
181816.8547496176 236659.4198051687 -12547.840663153042
191442.8694676577 221415.071869669 -15087.81544941554
191013.1691383858 229366.5211604058 -14129.49068792026
194258.8977442028 222248.7876464503 -13953.336788326229
192504.1682286569 226108.86127601718 -15168.869116322521
191620.3304421627 225274.75895651348 -11869.2991765899
190320.4810642381 221390.6415670919 -11777.766967266522
188043.3383547667 227195.418640626 -12824.9083281722
189690.66153203123 232037.8516506813 -12063.766292091079
196058.910038807 226215.9703519982 -12824.27363251381
194341.4418779101 230280.8720763656 -12692.74908189304
189950.0346793347 235386.9302932019 -13798.228192508579
189495.66010743438 238134.1141328658 -14889.406247843199
194297.5293170916 235919.69402446112 -14634.651233301449
192377.6980070865 238422.4514271352 -14643.6095219209
195285.3023257938 238480.2116515151 -14286.75264029073
191610.3430735008 236963.2860503918 -11838.599058723601
187675.0438659606 238416.7951848451 -12447.90402842726
190589.3392379072 238866.91058249387 -12254.006531313531
193529.88950251258 234061.0384928637 -12268.03568815823
196107.6068284007 236841.4045808234 -11547.06645268274
193535.6730731233 239065.6916322194 -11938.75523008661
196370.8082106954 239040.7372024953 -11658.04559926063
179598.2672322376 225914.7665366366 -9275.187940764454
182870.8846760335 222710.1526444191 -8554.963689241864
183538.3589419132 226701.36206020418 -10288.206766093741
183478.2098720837 230591.7529341822 -9995.54891319157
185885.3082484545 221818.15856976062 -9389.903438519936
186012.7142721635 228501.6006815299 -8250.490933806732
178858.1521713071 222593.7778056929 -7284.0152308306715
181644.37244674 225234.35065106428 -5882.674275736036
181789.0402851384 229003.77901135202 -7630.609616564915
185191.80127744708 224781.9714354162 -7646.6452337876835
183040.7344064007 231986.978601058 -6497.029964829872
181290.57278736742 233838.6588436656 -9945.685905882652
183211.6726220546 237768.2904630575 -10265.50694825428
181037.12747380818 237031.8891853409 -9886.952385726643
184710.3025441363 233937.5139052053 -10486.75033616759
187044.2112301362 235894.47230863562 -9494.525255234546
185924.279173985 238599.93293793531 -10124.53156642072
178549.4114165448 232722.4013341359 -7212.766244081265
181095.0721271747 235049.80938814502 -6451.150048708475
178900.47742944508 236578.46965806352 -8015.154846085117
181593.5227437281 237760.01921554812 -7816.4529378829275
180191.5606456548 237551.36300535488 -5887.563698575041
184255.12720169558 235870.65977792552 -6925.719315078074
186205.90535407022 232073.5912856382 -6705.063307938507
184211.9601234333 238635.9973924171 -7733.4966439433865
187077.795694969 239363.3235928128 -7526.9801619247155
189425.837291291 227903.6582402022 -9458.310967751646
188212.2529108964 224725.5126528131 -9403.55652166998
188856.126620228 231779.0607621477 -8930.852302156432
194662.75512275338 222327.7255173226 -10077.01777226517
195057.9303175389 226335.26575768122 -9189.136616282118
192388.1824445829 229056.29030464 -8630.01374094526
191316.5501361189 222873.74900510052 -7946.655825279782
188508.2745831567 221685.6590939025 -6537.891646796577
189193.43752081 229291.7324919885 -6464.897566548757
195426.3400965906 222961.2004343432 -6945.955934442589
195721.724485947 229924.2307265362 -6047.263812701322
190776.7318984586 235753.4022646166 -9305.65991652726
188820.2650686911 239218.27759983798 -9894.47240674004
191756.47004078722 239565.362680559 -9613.909061538356
194052.4678396099 232607.45656491822 -8705.44981809257
194705.3765354214 239659.19821620098 -9274.21160523819
194610.39791945042 236732.7735286935 -9042.241455341773
190218.88994289882 233312.77462049978 -6101.554327378778
189993.475048944 239855.3209938533 -7241.422681570446
188754.50237782 237345.86927856258 -6355.038000477299
193075.980631624 237720.5484443613 -6311.774238184491
196613.6470420752 239986.073755082 -7129.8700152628235
193065.7999837505 240079.404585195 -7098.14136492573
160294.15957613572 195739.5320443415 -5074.168612459497
159993.0172312115 198636.9363487536 -4868.573176224736
159776.0484872573 201628.8607211666 -4727.466685490959
164919.0086289217 195971.32583527677 -4360.944602191153
164532.7715159113 200085.0417715651 -4387.437475505371
159647.0270211469 197017.2078277244 -2484.628323013852
159941.7278161246 194159.8733700095 -2637.694536974065
161066.6846744365 195569.6713674223 -1696.9412187027451
159421.1200360893 199968.460506048 -2502.47695300409
159247.44215312318 202915.8264991648 -2387.6014226327193
162617.9048596093 197873.1049015421 -2446.79247566245
162142.31835058582 201999.6719544386 -2552.171090816028
165378.2192274657 203023.8825032019 -2381.786855963008
159651.5636667941 204609.6844113059 -4558.912884196271
159596.5823295197 207260.1526784831 -4200.268769544577
160335.82372012752 212250.6723724129 -5489.408661468716
159974.28792676062 209441.6484063985 -5376.43652107162
163012.7338519702 206443.84702227218 -3640.291673020516
159230.457093557 205882.3888369712 -2439.483373207898
160805.5326637384 207689.2244079078 -1788.2475779027109
159687.4939199086 211787.8353079005 -2629.148257739444
159357.0570263374 208806.20789243717 -2483.076294838046
160904.92077349048 204689.487004656 -1754.670047337046
163596.2050690527 212965.1453934033 -2976.3285083564692
162455.2766033174 209762.37121675542 -2704.485944709127
171067.6789167297 194991.35693103098 -3589.864205463919
172674.3914345194 203024.6664774697 -5573.4355104122005
167931.2560779874 196772.6146139098 -3019.390060353739
168444.7259861821 200644.4690375958 -3081.727586515238
170122.62850945082 204258.2102650394 -2987.16450452187
174420.1955308222 196247.5504443389 -2781.747869694912
172171.4269178282 199462.0936042348 -2644.750944612051
174478.2806356645 203466.4700782387 -2070.055073183267
169751.7663076386 208043.9581077213 -3480.39713156266
165920.0022299863 210212.1613005436 -5184.666716746586
174973.7832511718 208939.4220769763 -5645.819740633165
172582.38252691898 212825.03760201499 -5296.0306655865315
166938.0758930807 206830.9190260162 -2526.206066122262
169350.00855954582 211704.0860432527 -3042.349194305945
166278.2400764471 210153.6902902803 -2153.092452757395
173463.7579130476 206058.63900586392 -2701.238709312897
175026.26006739412 208393.0369504966 -2178.722705696007
175922.33972656503 212091.27003953862 -3207.3282633789877
171879.7102226213 213135.690832341 -2283.80552154793
172439.23056247912 210105.3556596739 -2741.024670553079
160211.7616185195 202845.0777984088 -1153.528383906729
160493.6252961101 197952.29206359078 -1241.335021806251
160501.8981483945 200667.6414138552 -1257.107774788904
159276.8755486477 195495.78945839612 0.0
159035.22790652118 198458.5363157749 0.0
162219.1221784802 194531.74878556438 0.0
161032.6157848681 197153.8766347831 0.0
158850.7908070374 201425.12392057 0.0
161544.69424383919 200011.08174864142 0.0
161220.4333813148 203110.2048467753 0.0
163488.37077707442 197511.2428399009 0.0
166233.399662881 198002.9098453235 0.0
165369.3140716906 195232.88905197298 0.0
163192.57245833002 201966.7474665443 0.0
165309.0274444438 202914.4418223796 0.0
164383.1630697201 200156.1062011681 0.0
160874.4257220054 210947.807287363 -1374.6383077524308
158751.0240582893 204395.2491066855 0.0
158766.907899917 207367.1502782088 0.0
161332.64583363238 205867.44421376512 0.0
160930.78534532338 208188.3408176062 0.0
158967.48810781058 210332.9874650864 0.0
159393.75744326948 213273.542142755 0.0
163682.5487027166 207768.4794697503 0.0
163521.5865948364 204689.5411090676 0.0
166082.0046479627 205775.4291982828 0.0
161823.7197973333 210374.0545269954 0.0
162907.0597900246 212380.72326516762 0.0
164871.5818249372 210622.31926043422 0.0
168199.8301943841 195845.88917006532 0.0
169082.41974665067 198644.93557624912 0.0
171042.78683839188 196484.0585691235 0.0
167984.9999353154 203624.4207698369 0.0
167140.1136462043 200800.7943762069 0.0
169974.37471195348 201448.2080600441 0.0
172883.6571881775 194361.4628059417 0.0
173694.55866079492 197179.2175085427 0.0
175009.5630479322 195226.83710231681 0.0
171958.0011597871 199272.164034799 0.0
172851.76553298082 202078.59021627432 0.0
174835.18978463742 199901.13266641088 0.0
175730.3774848057 202707.8301975778 0.0
166885.115696517 208621.0804269561 0.0
170866.0500850019 204257.3876674818 0.0
168876.9967586914 206438.0383524847 0.0
167776.8949006726 211405.7397827815 0.0
169771.6125183665 209252.3284991977 0.0
170666.82933269272 212066.9474651983 0.0
171761.2226046533 207069.8983892928 0.0
173593.38204139998 204920.533853445 0.0
174589.1385021037 207646.90186580422 0.0
175761.7380388548 205762.59478423942 0.0
172656.4119731945 209884.4351499218 0.0
173552.0742768952 212699.6834114137 0.0
175535.98693279672 210399.4849031024 0.0
160677.7435995792 215046.24682366132 -4516.383075212325
162569.3800126555 220209.293091614 -5645.386409747764
161556.8383378978 218105.78227150382 -4557.412455505295
166250.56881516948 216220.8585659149 -5727.415733590361
164240.9309009308 219278.2000303772 -5218.215543756271
160808.7970084928 217256.7781696945 -2369.054367876262
160054.9828022118 214646.9964522184 -2000.947312357818
161989.4825316148 220349.230456661 -2642.079530052908
163728.138878073 216546.0146077458 -2762.187008328073
166856.1603722494 214025.2595002562 -2529.6545574641336
166304.6632256072 220233.9094358382 -3108.456446594007
163384.54274819218 219566.4173068085 -2231.007427832089
163452.5858566566 222756.1013713789 -4086.9198531261973
164911.6459133571 224818.071207057 -5259.377936297108
166005.4015190276 226748.1333810278 -4503.491448778633
167849.3882170065 228863.5343027085 -5069.251883955779
164605.6230159255 225385.438138728 -2429.5148382923308
166415.9647387276 227924.4591727282 -2478.422332460349
166926.13282177062 223420.7653956082 -2811.8131237080906
167258.3511416334 226161.4681953418 -1818.436214545665
168188.7854613619 230012.1415854996 -2494.284803243261
170669.22213995762 215482.049261853 -4296.68431945895
169999.32015816402 224456.8700121016 -4435.960631252122
173737.0472661808 216985.5649634793 -5287.385703699374
176013.0216347411 219743.96265286292 -5471.7131179070175
168721.9010454986 217587.2751795504 -2779.490045886347
169752.1047788188 221475.543152188 -2772.713552842928
172660.2554406481 219488.09080265329 -2820.438808226415
174182.6915081617 215387.1705553932 -2409.529146564445
175645.94923829573 221708.921621102 -2533.228891177376
172473.565523646 223375.92662790438 -2287.775728002531
169472.67303698728 230819.803325636 -4214.9767246127985
171333.38837712837 232320.72942525308 -4974.1695259600865
175172.83116858808 231828.2971432163 -5760.447521771431
173633.09561605292 233929.81686579323 -5773.457087138908
175444.9618363977 235480.7164004347 -4173.382772538313
170174.9688827895 227839.9445017311 -2730.908664098376
170262.0717304376 232057.2562198198 -2449.0583084810733
172832.3898243011 229481.2402357688 -3764.421582197238
174605.8658529866 225854.7618353946 -3224.5066397718797
172830.55195416362 234048.2810652889 -2789.5678469573522
174754.6553181076 232461.93281950822 -2710.7470761224686
161650.53858876642 213785.4516527752 -1566.3825711569039
161862.4123434826 216984.4410350586 -1206.4454644670818
160041.23400020337 216171.26896261 0.0
162601.2979674931 214603.8389259511 0.0
162894.7100670359 217181.9986980082 0.0
160921.7330271628 219006.08708076522 0.0
163555.6989347201 219449.7943424239 0.0
165478.0948044509 213565.825902647 0.0
164601.1923952419 215674.1444268138 0.0
166758.3504095393 216411.07160506828 0.0
165560.84783233088 218280.67091136402 0.0
167792.7983420293 219167.44460210088 0.0
163037.7510440282 222980.8265440517 -1688.0624166647249
164526.2983177078 221773.9771561395 -1553.336965768877
165233.1158698438 223973.82411510072 -1437.466921563416
162039.4033961625 221757.4521127384 0.0
163392.764865607 224404.1170654454 0.0
165025.4187201584 226888.0317326084 0.0
166524.1190697902 224341.8756633809 0.0
165809.44530763198 221360.9441768592 0.0
168479.15428754932 221977.7370499511 0.0
166862.69762298433 229220.9298275752 0.0
167835.95517293428 226958.4860373521 0.0
168675.1483221871 214250.46529415538 0.0
169569.69256377642 217066.5850221784 0.0
171561.76832790562 214882.4363963317 0.0
169517.7876553387 224777.6147633285 0.0
170464.7578710256 219881.9322836924 0.0
171387.8585146998 222598.68499157822 0.0
172457.0434299186 217698.2019664451 0.0
174447.7130301943 215515.13056067092 0.0
175343.41927715958 218330.62122013338 0.0
172317.4660122115 225385.6749014437 0.0
173352.4848740046 220514.3894335654 0.0
174248.10232743478 223331.5900675763 0.0
169007.09233650012 229206.53727374948 -1284.502035479518
172071.5104367153 231580.6717909254 -1733.097644750087
173884.61438456492 233605.3087088371 -1229.641092804812
174927.8675807814 235674.6350747977 -1769.097178753424
169049.2605274472 229187.7415829812 0.0
171499.15650711718 230332.8198131295 0.0
170562.1728748468 227403.229936265 0.0
168892.35484015528 231386.7379372317 0.0
171100.8094247148 233370.4722481343 0.0
173225.709013193 228099.2652972566 0.0
175151.7531081167 226114.8645635836 0.0
174256.2887028749 230144.0441980947 0.0
173473.1202422216 235158.4867093301 0.0
173887.7682403084 232355.6179773497 0.0
176007.136137689 236712.57360535092 0.0
180075.20399923399 194242.97239725108 -4579.507650161324
179199.0510768069 201272.6565810047 -5207.422866575346
177634.3497792861 205407.5402879552 -3483.18278159125
182193.67750764478 198342.1615871739 -4406.942534061384
181692.3662589387 200991.2092192684 -5726.972398575924
181019.89489804878 203537.0476856217 -4343.435345968292
178600.7275290518 198292.7086897731 -3322.349902063841
177475.8713820097 194361.7131968098 -2340.508347972824
176334.03045867832 200961.45381865758 -2899.561022361519
178309.0967321887 203170.7738430573 -2079.04706517281
183089.7423319608 195766.9015014445 -2495.0137496725083
180484.8821055121 196378.8676163262 -2417.0272206860786
180928.6779102999 200910.2099355997 -2588.516251179814
180413.00620390213 203739.2372764785 -1893.746302453781
181332.32287174722 205835.80851233093 -5461.531690118233
180642.02584520009 216280.4309260149 -3818.062400416409
181498.3742320972 208119.5508016171 -4844.615244543616
182174.62982664982 210449.92258347178 -4853.508017672355
178519.7733218005 209257.908380979 -3050.025552873306
179897.9125424215 212928.9635093772 -2863.9648054022227
177088.7805133073 216745.07132145748 -2952.917833698035
179106.770864325 219804.6792158094 -2858.995186097241
180716.5951387207 206429.3996082956 -2786.447743435069
181231.6070564106 209403.3809139585 -2474.475481172835
182260.884158243 212043.87207737158 -2497.329649238156
181824.79132602358 222260.7024107569 -2854.8356672519712
183311.9826396043 212871.7574421798 -4916.0877671649405
185154.4609151881 193995.19716546108 -4568.581461435405
184842.7143621582 215192.50838925102 -4913.2331096359685
183690.7180825148 214505.4379726352 -2503.4910618803383
185491.4041796599 216740.4301919085 -2505.069736910959
186856.40500892673 217325.7754097549 -5014.884546196689
189242.9682625949 219032.6231376514 -4929.109787331587
185462.3352368988 221724.48132352222 -4210.684323814018
191466.4172880343 220008.75211385242 -4837.443770102797
194087.65452691322 220604.05903988561 -4974.894430996418
183573.3430715453 218303.9201280577 -2866.8397572805306
187637.1671823862 218599.6737128186 -2510.3645908338417
188539.7572408354 221622.5903000083 -2806.4869559203867
190106.1658443796 220000.32542734992 -2344.855236390436
192850.64367412572 220813.9161271665 -2519.95129937246
195665.0348907957 221205.3905659647 -2494.7439771059358
178804.4508114316 200880.978302985 -1880.382996709247
176243.51501838648 197396.049225313 0.0
177137.0818735148 194691.2932530114 0.0
177807.62069057228 200239.15006644462 0.0
177485.59342693782 207304.6724251485 0.0
177421.0754782455 204616.6848048161 0.0
178125.49108230122 202835.35600515752 0.0
178968.3217955146 197157.4697298473 0.0
180670.5279310705 199388.2348395375 0.0
180091.7055546901 194209.355940852 0.0
179940.391233995 205210.1999500376 0.0
180060.0836104863 202268.22935153102 0.0
176712.5876824579 213342.14655375108 0.0
178383.6200297917 210248.3840212075 0.0
176240.54782568561 221147.2797821357 0.0
176833.9540700936 216247.03506213918 0.0
178508.31458059 218485.065370539 0.0
180299.68438694353 208131.8506687936 0.0
179571.2810747423 212738.5796765346 0.0
181151.243318176 210949.29584606 0.0
179097.6001699614 221748.6022784636 0.0
179303.8026468451 215323.264365873 0.0
181437.0185004046 216941.7813149891 0.0
181387.1900532878 219840.96384461818 0.0
181596.7474546406 198171.4056075545 -1871.757311314223
182009.8669268429 194046.78609498462 -1452.7587946999781
181820.32569720538 196678.4847503307 0.0
182451.21856321962 213590.8603560533 0.0
183496.76921082393 194258.0172341375 0.0
181890.3518442756 215344.5308430004 -1551.588342617502
186225.75794693409 219953.9440731109 -1605.8502138667202
184132.83355858742 216007.887292565 0.0
183299.3138717952 218302.3077361467 0.0
186181.2505227614 218121.17102737678 0.0
181874.22036454128 222604.3084317781 0.0
184000.8493395071 220655.4218008401 0.0
186529.7525938021 221521.5757397243 0.0
188604.0317983451 219788.71994999988 0.0
191329.78357920522 220896.9542297653 0.0
189221.6874222145 222532.2190673684 0.0
194215.0 221491.0 0.0
178164.5578194313 223730.8256210188 -3703.773677516601
180777.10527840152 230594.9328466235 -3471.6695940836807
177474.5558394103 232769.0441770442 -3399.143963077179
184182.70022844148 228307.4830858298 -5343.704297743279
187187.9793447069 229778.5269291949 -4112.294713388908
178897.0038912019 226818.13934722022 -2675.014142088189
176155.0703558675 229054.37096108822 -2380.992388220476
185327.7604149444 226092.5336613819 -3190.7169786418976
182383.90287945152 225839.61728959988 -2259.3969749747707
184106.1408021245 229851.17286615618 -2585.9971038477
177910.8839765765 236682.751776258 -5027.954174342961
182478.7805324549 238543.0102736009 -5292.425496654435
185143.2832853217 239337.56738392738 -5195.261037095814
179707.006361656 234809.4220754127 -2695.326845143526
180169.3035618295 238087.7781221036 -3072.133149657614
177296.1749093664 236899.3069544933 -2392.673557582517
182527.9963288664 235673.53686493082 -2962.636540670696
185111.72906842548 233197.25020481372 -2745.195778674727
185333.6930119158 236366.388883649 -2529.555543345413
183160.67726938459 239216.3073878937 -2689.742392455474
185812.5684435896 239933.8627654679 -2545.348201198774
187979.2022344554 225577.1335863735 -5619.770654256278
190931.87098489012 226793.7238456576 -5548.1893503833
194187.2593102589 226529.8037284104 -5271.0623857719
191762.5116743974 230277.97955015002 -4112.542063365499
191361.6046286408 223336.76700962018 -3185.310358074138
187606.18549122402 224295.2562380238 -2061.835431728455
189025.36167466769 232879.2123784706 -2799.050365833971
188928.55618966708 227542.373836614 -2490.559876512994
195006.09898902682 223777.4036290807 -2568.675876679322
192490.7781926334 226938.1392626635 -2396.4714785025876
194956.501693303 230694.7889618157 -2589.8981209014523
196711.7443754298 227728.5450417957 -2433.626595780573
187272.858047219 235038.218086013 -5152.055737333573
188061.44246112648 239977.7260170268 -4966.160011478145
194550.54582716592 234280.6852439351 -5716.519516390136
194669.3942369101 240385.14207664222 -5149.556243389541
191527.0607617799 240431.60164602348 -4549.403309253916
190698.516532376 236608.3507923042 -2955.846067444805
187711.0666749411 237239.13081267572 -2815.325279207268
188990.0358117784 240517.9922559179 -2442.087594163171
191633.9393921376 240852.4770318892 -1986.8693586899392
192909.7841487898 233426.424871113 -2507.299258110184
194566.6437676585 240845.9957523915 -2538.724244003983
195860.7879113685 237915.27161431158 -2767.477445409099
192422.1997766167 238863.75483188912 -1999.245174435267
177137.58558437828 223964.7303484198 0.0
178035.0957838372 226776.7205127204 0.0
180026.8221371674 224596.4760779982 0.0
176080.6616690901 228690.79585042578 0.0
176588.1480846661 231241.7220523121 0.0
178916.408862459 229579.7206203483 0.0
180923.2143651363 227413.2864237139 0.0
182800.03998439072 225379.7213880799 0.0
184733.3686308549 223542.20402539658 0.0
185658.7408546143 226152.6744320543 0.0
181812.1554770885 230257.3605124551 0.0
183765.936338661 228193.9478556839 0.0
184711.76844672312 231029.4444121367 0.0
176632.8129249896 234753.6753665201 -1507.2061204535362
178784.0831230708 236385.2577425224 -1330.439282954
181250.7442572737 237164.92027161972 -1464.237697787366
185782.7588290347 238763.1816784491 -1326.4551539976471
183699.4110430497 238028.67548530322 -1305.5875472835642
176085.2456156202 233742.24936549272 0.0
178219.99187653192 235341.5729794144 0.0
179350.6470924986 232646.6001438808 0.0
180978.62930102262 235592.7608719795 0.0
178678.3012358293 238013.680910368 0.0
181443.12962930082 239096.4248304539 0.0
182717.62358233202 233052.6807955356 0.0
183614.2468313163 234961.97634885472 0.0
185672.9453424758 234502.5166654289 0.0
184282.6059923847 239964.3382129894 0.0
183614.50284840318 237071.3228578455 0.0
186261.6726526468 237978.6854841556 0.0
187449.025965343 224185.2583021153 0.0
188527.7058724413 226754.5774202074 0.0
190080.46195293657 224730.3650337202 0.0
186676.368335995 228860.33760084253 0.0
187617.9604253327 231685.8467555783 0.0
189599.4817790773 229377.7453080653 0.0
190490.659794674 232124.5728527452 0.0
192258.2216298951 223691.24628537468 0.0
193773.8250705136 225585.8906834427 0.0
195430.5625043566 223810.2259417357 0.0
196641.5383777332 226056.037546342 0.0
192483.41262003378 229948.9613312583 0.0
191627.6297643319 226796.8142732231 0.0
195373.218208701 230569.686634678 0.0
194580.12903266188 227912.9390191405 0.0
188553.7782275319 239098.7420138344 -1290.98706823421
195413.4207172674 239674.84410750878 -1223.917142538442
188542.6080453108 233962.7717748567 0.0
188045.0116623872 236163.0073514964 0.0
191076.3980577541 235089.6831141099 0.0
187179.2081178581 240622.3465021775 0.0
190117.0 241076.0 0.0
189583.1224828843 238089.865471292 0.0
193381.4338400174 232757.4487056825 0.0
192350.5501343467 237105.0408821942 0.0
196272.1853401491 233386.8274693433 0.0
194205.23132889828 235462.42640218258 0.0
193083.49349730441 241266.62782933182 0.0
191978.3252336589 239123.37886232912 0.0
196053.9134782285 241251.8219179148 0.0
194605.2465389799 238398.8696965973 0.0
200232.2228729623 155530.7203004616 -14877.59997167805
197304.69432650862 156002.1479963108 -15032.053326756151
206108.2255468187 154942.88573450648 -14266.658088291271
203169.448504736 155178.1941700255 -14621.31985279463
199500.41866458158 152264.6786696267 -10981.043395499712
198398.7839078614 154101.31075076628 -13030.31082003377
201333.7821071274 153706.3396550696 -12809.72819371347
204272.5617516574 153421.0749926361 -12496.72117612872
202438.74081840308 151943.0082606128 -10733.63669276676
202718.8155167319 156579.6872631038 -11732.843969874139
198057.4379668619 159020.50152593362 -14544.87299689672
200829.6459763368 158135.018073242 -13433.68372957174
200991.2870969039 162343.5226951323 -14251.41814735363
198047.0239287697 162531.1324877734 -13983.83916507442
205860.5407519346 158390.22839595831 -13798.82849120586
203921.4126525262 162129.52203085148 -14246.59278655835
201207.33824230562 159264.1570608503 -10697.837321362931
202558.9392643308 160794.90583426118 -12580.30523824042
199615.5962568511 160870.1391207874 -12401.53090873299
204232.9967102607 159394.6975084718 -10790.029277881142
205526.754980489 160872.5468988574 -12589.86365506555
211961.35377291008 154806.538065751 -13281.42518410776
209041.17646367959 154819.39513270068 -13819.41997901142
214860.0323217914 154912.16903349978 -12646.83982304042
213777.38241766382 156498.2022905646 -14911.30429726111
207191.6162544173 153260.1764101581 -12115.5663074228
210129.157251564 153183.71770418738 -11612.99505903701
207437.6409187468 156542.3379676134 -11145.74655691528
213044.2307268111 153228.5747102708 -11031.32458245412
214557.8047117132 158185.9722628523 -11471.885776016301
209549.9271658759 159320.9028259439 -14282.28323449173
206903.98988450118 162264.9011776134 -14289.165130395579
209823.19761421668 162500.4369530329 -13903.53141475291
212704.77400688798 163037.1755379973 -13410.67038570054
214187.8406441301 164836.5700029379 -15098.16558335864
207203.07880044292 159706.3893400073 -10694.70499473073
208407.2207770773 161174.6266031873 -12423.63455593235
211330.7705448971 161676.7927043953 -12106.9600013071
212114.5594962269 158795.2429785472 -12876.56561122689
215527.75446820998 163615.2499725673 -12736.61526815025
214049.3929735658 162269.30348839032 -11650.94619840018
200613.03502318132 150477.14593196742 -8952.275482803989
197693.0219041989 150845.503833461 -9186.251112247677
203539.1843506849 150166.7413941298 -8588.08115957807
205361.736373737 151713.1131429488 -10383.76818202327
198810.2583545211 149169.5834090581 -7215.260896752744
201707.38134516738 148759.71285120829 -6790.483978591151
198301.8391992625 152880.0060768213 -7359.59153595975
204639.3489613136 148533.36896316792 -6393.6868993362605
206076.4240823836 153678.623559675 -7853.205838362955
202195.85271494198 152877.27082016302 -7547.249943260736
198402.7171462223 155169.7919865555 -9889.943129975027
198215.56189717568 159349.2001307645 -10531.752460482441
196914.7430427475 157706.7917737851 -8519.77200495595
199921.9260141348 157690.0307750013 -8778.462868672
203292.19599715818 154745.5264316211 -9631.557329824904
202922.7256622018 157753.9531945964 -8794.952444501889
205913.9517162031 158071.46831312848 -8760.092097503064
198566.6805869377 156015.11028445073 -6668.318208788956
201536.986925091 156106.4070085636 -6741.812572281212
204502.56156849902 156363.9253712038 -6688.84333717692
208310.8982761218 151573.5072801023 -9929.950174924457
206477.57398843952 150009.9809263632 -8181.92363148348
209869.0216320588 154468.9281337869 -8126.8226955317095
211248.2455446941 151546.65031015422 -9397.070183925123
214142.5795004988 151648.5296817605 -8774.607097449809
209413.682689682 149962.2877845795 -7679.690973218571
212316.0939467197 150012.3812936607 -7068.857987491564
215146.645666523 150228.14664191718 -6442.89864468756
213765.9034975355 154027.28592159532 -6778.165644336203
211284.5360139628 156354.3655185845 -10428.47964327061
210096.0299239349 160181.2960847473 -10467.77850504556
208830.8158715455 158480.929425677 -8543.681673997366
214286.3528573192 156382.4761137219 -8986.943202651666
213012.53756322028 160796.7407474081 -10165.7564973548
207467.9299669418 156765.16612853148 -6552.702134567342
210389.0220978196 157242.2728696358 -6321.084657164258
213347.3956756205 157900.06940960028 -6139.794072737349
211753.03514269128 159029.9589108907 -8283.739899831342
214685.80589939922 159710.50575847639 -7990.049601770613
196964.3803327308 174105.7076259953 -14938.53052154453
199270.1353225181 174193.0720649221 -14226.16282130196
199148.2062518178 176934.4101451117 -15177.83270823017
204272.7379918529 175144.1221520857 -14918.56490758695
201523.18319618312 174587.8783354558 -14793.947670311001
203297.8256689194 180887.38936677753 -15143.92816122888
197911.93197890688 173793.7101192632 -12227.65674863041
200372.651592226 174049.087915107 -12160.99928491949
198651.5464592342 176146.9974445583 -12150.238936713351
198605.2294555621 179904.8068782542 -12016.54925658128
202990.5911771495 174516.2847351871 -12313.18456589831
201935.3682607613 178103.72374990978 -12573.94915875911
205297.5759258889 177504.2440922821 -12203.01693083496
197396.88205271092 183096.0573192597 -13376.49202546844
198801.9847981881 187254.6460772775 -13495.945734050229
203574.9103191076 185010.8932338959 -15165.75788679874
200823.1047191051 183049.54093665798 -13770.25321761599
202487.33709196 188990.1752983671 -13918.46777325593
200991.2344196729 190869.31573022992 -12989.22293025393
201801.8996093546 186627.8587835651 -11499.70585779988
198167.2606530216 190338.7985779129 -12615.33710255788
205224.3546376639 186536.8191690138 -12715.44077003758
204412.457660517 182397.14164141112 -12263.40716192465
