84
222.135 178.087 -11.2834
222.459 178.08 -11.3259
222.82 177.744 -10.4897
221.97 177.771 -10.3853
222.141 178.492 -11.3084
222.456 178.492 -11.378
221.996 178.83 -10.4303
222.801 178.836 -10.6604
222.595 176.882 -9.868819999999999
222.079 176.921 -9.82902
221.808 176.533 -8.697660000000001
221.12 177.563 -8.839180000000001
221.139 179.048 -8.850429999999999
223.286 177.165 -9.50473
222.855 176.417 -8.75745
223.592 178.102 -9.932219999999999
223.917 177.657 -8.834949999999999
223.645 178.989 -9.94777
222.225 179.749 -9.871
222.915 179.852 -9.92102
221.873 180.162 -8.703480000000001
223.559 179.767 -9.69449
222.695 175.623 -6.86893
221.383 175.829 -6.887
220.79 176.874 -7.61271
223.635 176.697 -8.27563
223.72 176.441 -6.99013
220.244 177.517 -6.91821
220.44 177.892 -8.016450000000001
220.446 178.693 -8.019399999999999
220.255 179.064 -6.91961
220.819 179.728 -7.62284
221.465 180.816 -6.90476
224.066 179.003 -8.768789999999999
223.728 180.053 -8.683210000000001
224.198 177.654 -7.16394
224.256 179.124 -7.17253
223.819 180.433 -7.11221
222.889 180.476 -8.695209999999999
222.852 181.181 -6.97922
222.294 174.898 -6.09685
221.77 174.962 -6.10081
221.727 174.855 -5.31513
221.152 175.565 -5.45276
220.432 176.39 -5.42033
220.528 176.452 -6.40705
222.94 175.494 -5.49717
222.342 174.826 -5.32291
223.736 176.386 -5.61792
224.133 177.675 -5.63312
224.17 179.264 -5.60565
220.121 177.572 -5.50494
220.131 179.003 -5.49899
220.56 180.143 -6.40833
220.47 180.193 -5.40147
223.836 180.867 -5.53048
221.258 181.045 -5.41458
221.961 181.689 -6.10227
222.58 181.814 -6.12117
222.001 181.792 -5.26735
223.285 181.505 -5.88707
222.896 181.919 -5.27091
222.28 175.032 -4.68945
221.792 175.043 -4.6848
221.462 175.939 -4.50126
222.627 175.93 -4.518
220.637 176.51 -4.65072
223.487 176.526 -4.72359
220.504 177.586 -4.50783
220.516 178.995 -4.48973
223.651 177.674 -4.54083
223.68 179.258 -4.46836
220.678 180.074 -4.60198
223.57 180.75 -4.48265
221.563 180.67 -4.37486
222.097 181.603 -4.55487
223.527 181.665 -4.9855
223.448 181.577 -4.48214
222.843 181.679 -4.4531
221.452 177.478 -4.06682
222.664 177.503 -4.06208
221.476 179.134 -4.02015
222.69 179.198 -3.9596
222.718 180.724 -4.126
