864
209841.3477100273 189812.9928119573 -19684.47924232578
211970.126824855 193539.4544304378 -18986.97211277308
208402.4832337211 192400.1036257087 -16186.69742458399
206308.65141085142 195470.63672594939 -16279.031639608342
211156.19734479798 189820.2570192092 -16280.687570905911
214094.3142587401 189801.6806829778 -15390.34450504997
213902.2009327463 192948.91730547248 -16204.231166065021
218185.5965696054 167251.38770657152 -24945.0247760149
216639.7460025441 165211.7058513166 -23544.06195326578
216865.2527826631 169895.6536084915 -23768.4599789558
219463.0564254763 165651.91486121638 -22844.7323773388
220989.9722859033 167793.9051856726 -24138.03099478136
215032.16406092868 163349.1978561264 -22125.73133517529
216203.5501122591 161776.83279573199 -20110.55268552968
215938.28089968459 167042.6659972834 -21865.62302668905
215401.6002930449 169780.11311228518 -20331.811607884098
217880.3150478655 163687.1021547929 -21531.96585248768
220677.6948677612 164111.52986097967 -20715.4654255333
219227.73637059648 168597.5160902536 -21127.77355586733
216812.8162767146 173467.757506005 -22499.840753837252
216054.7901098764 177959.0334209082 -23091.307026959603
216160.7117495843 175983.5541526619 -22929.72013784268
219216.7607076103 172096.07721685022 -24360.3571849443
218784.6838195434 175691.95117618982 -22537.8398938438
218249.672676652 178031.38912760472 -22799.17806315775
220691.5936901934 177990.12625333588 -22368.66769141751
217287.87788467 171337.0391802701 -20654.40113789054
214896.27385028912 171574.2306015355 -22048.357672481612
219287.8740904108 173318.5080605111 -20943.29205048033
221256.0537137184 175514.924977057 -20894.88199301206
223633.4238199099 168575.5191854033 -23046.93251362687
222220.7102801377 166256.4694772714 -21931.75854769213
222101.3220305781 172189.1246182358 -22726.706941965913
224929.04768981962 171081.0875984074 -23958.18742763969
227061.2707791291 172214.1182421871 -22332.29726041987
224799.0671641689 167033.1811208411 -20780.35095154765
222511.2722858744 169222.6523672652 -19984.764313988537
226068.1178598075 169568.23501982918 -21660.83404369402
228192.77077490618 170751.4029731835 -20025.318241947618
221503.788687559 174982.1452750288 -24998.48245005672
223961.7439365999 176348.6710543143 -23449.21087400101
226015.9420088457 173768.04877757412 -24588.19572213319
227873.6056289771 175025.1921816755 -22677.69776458626
226794.678273973 176617.6924740054 -24883.11109071948
228441.2675353173 177872.8402124354 -22755.02125561678
224765.03509017781 173903.9014897379 -21127.0659952452
226360.09372429101 177049.4131305423 -20857.148792366028
222951.56885610838 177928.9804097054 -20524.40845549044
228899.39667067592 173455.2531434017 -20459.609754818077
229462.1456346052 176274.93979810772 -20586.40055866553
214462.36742573252 159928.0942789164 -18666.46037282452
217348.5507768205 160097.8295690453 -17992.05033977675
219055.0924088466 162062.7577858648 -19371.40672720437
221805.3985712116 162493.3468581691 -18491.8725172027
223391.6239740545 164730.5570630315 -19720.5186355928
215595.0688977166 158215.96441159182 -16531.40797684168
218445.7927483706 158477.5094637407 -15759.414442267029
215654.53860001962 163152.87326941002 -17257.92371761673
220183.2861740615 160411.0742691536 -17202.338884231678
222928.68710513652 160940.87885459771 -16224.94038911187
219270.54169468768 162901.57947503202 -15389.743140941191
217742.55877371042 165628.9507056474 -18909.224898191158
217153.7061775038 168973.4844449197 -18453.053873119567
220989.3641052768 165806.6837229314 -17717.66931038987
221601.21941758128 173171.23318803392 -19246.050478307938
219643.1412744892 171098.40771323 -18958.48860820571
215643.6191471538 166817.26250553707 -16776.34996354549
218398.5973904948 167657.6357288687 -16023.962205518628
219737.66571136183 169447.2726161464 -17022.23397642587
222147.5863323443 171101.19056695272 -16684.96781753429
223548.3907644749 173505.4893323698 -17351.137869707538
225935.633510569 165520.6768323659 -18492.80113093469
224508.4938662435 163156.4233189305 -17456.92524846768
225397.47088062522 170646.953739185 -18280.00677707435
227196.3789038294 168062.9439819564 -19364.429066293153
229289.9855759707 169214.4086121566 -17680.47037935157
227006.46633389598 164064.5671937431 -16138.059425527028
224147.06672329752 167280.3877874875 -16844.28692226152
228289.8132590756 166576.0900899806 -17057.338646767123
230237.099234206 167952.1415330366 -15262.50697483175
230972.6544036197 170664.6041624472 -15850.12657832045
223908.2191474852 175795.7865413993 -18640.84033280611
226855.484423832 173697.9498222671 -18349.45952423456
224906.7895181736 177928.0059315458 -18284.19847021965
230491.60636804232 174706.7309099622 -18411.650009742112
229970.1690495689 171894.38136195342 -18178.82721151389
230927.68430951532 177501.542926186 -18282.09875255929
227964.0115713742 177698.0545014193 -17877.625988917513
228067.476212245 171801.6369817607 -15771.51179894766
225870.1405954476 177099.7833921958 -16392.04938701326
225342.6263984804 174887.10203015633 -16105.35994419446
231450.6917311583 173294.1432894465 -16195.373033654128
228696.55320410518 174950.4076134952 -16168.51723923336
231894.3526413223 176031.6391159452 -16022.492498893102
214937.9554294681 179557.97430756458 -22893.60651753599
216566.5770498719 180804.542035505 -22767.54367770285
216075.3717575715 183761.2673844673 -22291.37789041397
220273.5691768901 182028.50778459402 -25092.75684392486
218384.7787928731 181867.26462160458 -22645.73100038198
219446.69908720668 179910.5596889695 -22680.91871820431
219844.2512619792 185017.63078474998 -24234.067830124863
215070.8473173043 180028.0340077035 -20718.76540019256
217862.9204814205 181776.9415061803 -20436.402279117872
218535.276309034 184992.3911815409 -21296.19669234813
222042.9083754227 180522.0952371039 -21660.91494885013
220197.9002177089 182949.0729016676 -21966.281343459043
222595.9042223243 183211.637984286 -20278.44335076402
217531.8785928226 186813.0970907478 -24082.45694079422
217487.5473139919 190442.7653053681 -22771.83384774781
216065.0787731748 194346.45405824468 -24875.93650883892
221124.6194562475 189078.9930330305 -23399.09602751516
219577.8992525104 192905.3711297574 -23267.4035513851
215771.9159738802 187019.7333436078 -21540.17434785613
215479.2820010591 193380.6712203807 -21371.64728901232
221822.4261878961 185910.74380943828 -20910.208745440217
221524.9642532868 190994.6078667241 -20766.69817549397
223350.2364805611 183123.44349421532 -24938.629075487188
225640.65208313742 186101.3563367957 -23671.2825452824
227333.9469599392 179536.4873807086 -24950.8212533325
227669.6334062226 182445.0302666177 -24869.40462199374
227870.5589975432 185391.45117283642 -24655.57265915237
225512.6061272164 180231.4235622905 -22894.35271240565
226186.0590332413 184412.02870618098 -20518.11056380864
228781.2843442366 180821.9568010972 -22699.42754958376
229857.33700527728 179161.47525778998 -20485.466486877373
230038.3689501153 182122.01476688738 -20344.1968971399
228962.9073930376 183779.4886381818 -22489.98940150064
228939.6212462088 186744.9400231545 -22314.50022365059
223292.6196409644 187025.26043236282 -25104.06323634714
223157.35409591132 193291.0565481917 -24772.34445752989
227849.44215231642 188290.559007779 -24410.976838263552
226870.4179596515 194216.3864665681 -24955.55413349075
227718.8020392787 191346.50482039351 -24054.187969607232
225249.9766635809 190875.81708187098 -23165.349440659567
224620.3159004878 188390.7386017307 -20826.17413815145
224272.4732619802 194827.5540014974 -22395.84241593395
228829.2162858102 189568.63637933612 -22044.56368996915
228080.5926544513 194018.2893232496 -22457.83182427142
228813.8966066013 191928.795618924 -21464.76218810027
216504.6684092729 180400.17128483029 -17668.29733687491
216004.5813481668 183584.0560009249 -18950.1964432938
220155.3080339125 183254.96017133488 -19526.80845337922
219733.60473398928 185499.9684835423 -18133.66046590242
224302.4956542483 180455.614348387 -19729.00094191507
224482.5963775877 182685.55334758 -17770.31237332378
223671.7881003683 185796.64287961271 -17792.276196778228
221694.5860950285 183500.7635522813 -17732.36064208802
215524.758228408 182208.3067910246 -15577.25416077927
217322.1014532017 184857.0364426501 -15601.15213155899
219057.5894969928 181934.92782492298 -17617.82918318855
220719.08377781778 185159.6579403087 -15539.23639001993
214685.26114050558 195987.5385718146 -18720.28391177556
218118.1937367762 187940.4886564781 -19767.75089102085
219775.9426532514 195116.04677402222 -19724.352864147448
217811.6920820665 191941.99959653922 -18082.27411972548
214419.0038568848 187222.7552443569 -17761.49870369365
218185.3207814345 188490.6495680899 -16203.141201342689
221408.866420226 188458.36236365908 -17369.51001331073
223001.75577086592 192176.48412654758 -17209.44532552459
220005.89634943652 194393.94429926842 -15352.74664704739
227280.3155504568 180490.6065251208 -20021.72096532259
225584.6146931908 180055.13878168192 -17405.61751538853
228237.4953265898 181928.9979688277 -17398.45094842487
231141.3985197536 180460.4049892433 -18144.0356005114
231200.216480342 183422.5479363813 -17940.46769539679
230071.48377188822 185083.78116551528 -20128.180331752792
231137.904767683 186380.1867896613 -17678.20690871147
225827.1069391636 181918.2775925658 -15375.64706660401
226779.6144769759 185404.90339201599 -16267.727565493178
232105.913056702 178793.90644062558 -15891.75065212219
232177.6600342967 181759.3165220242 -15682.534034764441
232112.6498888607 184717.6929153959 -15428.31541744623
227168.98972270617 189394.4860788106 -18915.06621617812
224640.30708998832 192957.444832137 -19826.75012912897
226699.2341090839 195015.2441471488 -19195.08200852508
229982.26639912018 188039.67023527992 -19853.37833313429
229787.40768812032 190913.4975832761 -19585.1066428209
229367.2005225877 193908.97756053868 -19602.17741593731
224781.5295007105 189250.78396806298 -16097.882201340419
227624.4826262708 192517.0844065249 -17292.390454124492
225209.87644761748 195227.60453242488 -16394.5905928114
230972.119610827 189311.6534181271 -17398.33892960056
229015.40059697122 187888.4772189738 -15413.2754252608
230737.32238821028 192240.82144994522 -17082.1662487701
230455.9781831711 195190.6686288171 -16697.33431894938
199345.2641871556 198500.58753373672 -40445.13469468059
197800.6297856696 196242.81585689168 -40322.2206614178
197979.6720156685 201337.2176646456 -40625.91469178169
202063.0676263459 198540.5021514071 -40314.17853234973
200385.57060637852 196043.19992085767 -40279.26116735415
200708.0963990755 201233.6026556479 -40431.6508744972
199900.2607962126 196738.8670384303 -37433.55979400929
200266.3264081154 203444.0971969814 -37929.26548472542
198845.5777882069 200456.58889535652 -37120.46187222699
202273.7489793849 196962.88510413372 -34780.60749080824
202107.2356906411 199214.3395569976 -37585.783224494
197970.2942967363 206501.3909730448 -40519.02124875258
199262.2870860988 203845.7023400565 -40516.731020752
199406.3162293781 208981.59796625198 -40314.30655379714
198048.34732400058 211624.50433021248 -40242.60567177836
200784.1494611234 206338.1736211485 -40339.119401404554
202159.45347825807 203708.2643525766 -40289.66391806558
202344.3027920383 208830.1136228512 -40143.16391309178
200969.1886690218 211486.9386481343 -40101.744867159665
198802.90959539768 206988.7203623706 -35320.23953645338
200361.6219939612 209191.5139024677 -37612.817416719045
202294.7667609367 206016.7905791223 -37324.426038996055
201770.7590761577 212227.6792698344 -37317.666681630915
204903.97957058 198447.4544653957 -40114.757482799214
203532.654547081 201077.9373339191 -40213.92788254948
205115.8880893444 203583.6847600892 -40057.25982369895
207854.6913737529 198317.9168025323 -39893.199308109484
206489.1735894537 200953.3750608533 -39983.08897319389
208072.3450643322 203459.10836254832 -39824.85390450068
205324.2016303123 198187.6510139325 -36673.645384418494
203393.5276677243 203036.7195046822 -35295.03151676153
207689.016770426 200252.7231986239 -37665.98450341272
206914.1893938242 203278.4900455632 -37121.64141025458
203741.34281304778 206213.7681673111 -40115.82473579646
205266.11279332518 208633.5319647566 -39937.1102286907
204272.3098300787 211662.0279536546 -39902.27908377962
206651.6106479303 206012.8702768562 -39892.0997641657
206803.2458086567 210660.968217954 -39762.48978603851
203664.85105009202 209337.7931551915 -36385.17117328025
205523.9524413777 212020.2324686859 -37057.23157373616
205996.4229549357 206942.5434950891 -37405.68700681538
207952.9949054051 209539.598799791 -35604.80111299668
198589.6253949419 197794.15940428898 -33584.05547046152
198491.1538807037 200584.8635283245 -31251.45127183194
197751.989663349 203518.2966624526 -31745.28248365776
200631.5254908024 199944.9308420727 -33684.91259599114
202217.575071547 197575.26103002438 -31330.371727703638
199783.22469985968 203749.0990159564 -34236.77923101813
200431.2249504717 202779.22663432828 -31303.113794374192
199328.1469368673 196442.6392636547 -27267.423149620972
199008.28931944902 198249.99559097548 -29554.126405947572
201404.0035087357 198072.5179912187 -28055.97864720418
201123.08052251648 200231.39764966312 -30006.188281582752
199568.8097120052 205406.606367002 -31585.29022234389
199393.6440960511 210517.3932092895 -33899.13486289051
198987.5540948072 208445.10572802968 -31514.45692141471
202280.5303676918 207289.145917507 -33722.76810231997
201309.19247195747 207279.0587555575 -31269.98719582039
199684.0571124709 211864.7183389534 -30435.3879002532
202274.6824723144 205057.9888718609 -31102.99105424898
201839.12811659742 209790.3560269842 -30661.38962728182
202232.8957867321 212137.9429308109 -28838.82076220382
205644.0858817835 196620.418300263 -32374.301890136594
203572.5947631971 200042.7739753794 -33124.53763686068
205665.88310699482 199764.23560110832 -30720.9745937517
207217.4501404384 200107.53702037642 -34329.278684650766
206624.4609051886 202875.66529928052 -31665.49451609798
204187.9339800007 196678.7800905384 -28760.63439716412
203418.5610377731 200114.40679171743 -28182.65233205524
202950.4866997058 202517.3678700421 -29799.71308727871
204955.0705469229 202632.17543414148 -27707.18050365616
207384.16164378021 197925.41013551928 -28459.50050331146
207228.58166469852 200838.6131217455 -27437.07063145969
203009.3230055634 211896.7763479935 -32921.3037251396
207081.7314439551 206476.5507609225 -34215.9030942098
205583.7773279176 206141.34609824358 -31510.85911036477
205598.7224666983 209587.2760806302 -32193.34720045886
203349.7797658407 207559.15608079202 -30006.30743024544
204328.6083211164 204985.1533173772 -29057.057556228523
204144.05930661998 210033.57430872752 -28640.63618578352
204361.1474548902 211957.5352619714 -26838.63645009875
207363.8326224939 204806.2300656701 -29188.15778255052
205376.57282693518 207478.6127601686 -27884.48447401137
207989.1846624693 210541.7992033707 -27868.26811880293
199586.04440081312 214106.2204132865 -40017.723254212295
198221.92863492278 216727.5213187141 -40054.70648859256
199714.00013300372 219158.1904376055 -39282.96295507364
202388.6087782071 214100.4274525406 -39890.003900277086
201140.8286801609 216545.88110845588 -39808.56284667433
202501.9106390197 218982.3743326313 -38772.28933765676
199869.7646646144 214388.0870162983 -34581.42995242515
199215.0612947485 217752.2172531102 -37305.171631797675
201012.0225536663 217992.85691416712 -34996.44283187053
198226.6124301025 221616.00773410668 -38534.96168213062
199651.5151005574 223904.6043682115 -37344.990059924094
198015.4439465897 225873.863717195 -35903.040989816756
201131.9884688066 221437.3484520365 -38086.21215872532
202593.66529383181 223747.406956946 -36854.15040604143
198520.8723986833 221089.5491506402 -35101.476258993964
200391.628209215 224055.550925494 -33884.304810531714
199326.91625609872 227750.5830590817 -33974.22515570268
202416.9648824155 221236.8816972356 -35254.752494001645
200978.4710373526 225817.6240751396 -35468.89483173042
202227.0466427384 227543.63810764538 -33415.700738741885
204853.25119572142 214388.915709071 -39687.32963209971
203751.5869841124 216542.2999762856 -39346.26236842334
205238.143625693 218681.01041669 -38167.34629096359
207084.1906827626 213174.372989339 -39153.59749236103
206306.5623848863 216164.74086267932 -38648.323569783395
203891.1544972257 215292.4475410425 -34233.31163715628
202743.0954573795 215794.6104676236 -37271.585552028766
207495.07848968531 214414.90778500692 -34752.89815355437
207936.0197191757 218211.5830968653 -37456.43888129064
204017.8275622445 221225.9924724478 -37547.58640618276
205387.7043299054 223238.43989335798 -35971.82237105751
206867.5094916537 220818.2298770863 -36945.23790093561
205015.3028236948 218804.34195019852 -35199.29989548918
203809.7685402458 225449.1634113422 -34779.60812143789
208087.8610900558 222568.1417862129 -34951.17479359412
206624.7481758495 224921.24726893828 -33884.94394369535
198482.3184436681 217033.13444851848 -31499.31487050873
197915.2109358536 213401.3567314859 -30483.87059881004
199079.2917281063 221657.36848628358 -30771.75215888824
201929.1458283815 215031.7144290712 -31033.63240305773
202103.7103075017 219348.6569171622 -32193.532875310906
199829.0420469975 213891.27352481632 -28623.20575911662
199958.5910146232 217685.048813165 -28246.054520898342
200154.7209233538 224268.0219341272 -27394.29805672824
198040.2901238268 226076.440405398 -32052.6239971925
197663.3859188814 229696.99570010867 -32433.007421765145
198864.0933731253 231098.50858685668 -30099.98053128269
200883.51283437852 225449.16168234992 -30965.277121297033
200593.31372327672 229541.0992910787 -31943.769522281487
198185.024198495 227307.10169517618 -28813.64476281246
199901.9257050727 232258.28153939112 -27794.54188891032
201711.917086157 227809.07737648598 -29565.46772646298
201002.0633195041 229705.5423034053 -26977.793069442447
201713.8470109376 230780.9593554602 -29597.78900698643
202611.27066537843 231954.3175964033 -27239.85652498102
205569.7472653657 212825.29674049572 -30755.185579268753
205568.9419592365 220956.7262743485 -32117.41828835711
206923.1863896274 216844.5518354212 -31330.977010656108
203357.5886896512 217337.58699643952 -28502.42252216309
202730.066069326 221822.9249309025 -29045.22577330023
205241.8809029003 214532.7646571221 -28412.567444478023
207481.325544733 218463.0851315202 -27916.397946787878
206311.2939214411 221993.29380005092 -27465.0052833689
203417.8366377693 223609.0316315595 -32623.53230461457
205083.9823548031 227143.259357389 -32686.26530791424
203470.2971634652 229215.7970890485 -31286.470116458742
206898.9154249898 223912.84581979038 -30892.98833055408
207854.2409872463 226604.24644022042 -31784.87070459001
206202.23791186602 228585.5869417841 -30407.90844066548
204462.5260526097 225966.3636853745 -29057.896911505282
204439.90877441748 230344.2513049851 -28879.96209294307
207830.2597350691 226299.02025601562 -28281.64444338414
207149.589298632 229782.74327919248 -27874.22873091133
210717.5630725483 198167.52180674858 -39290.67736257909
209431.46028043522 200815.42043727462 -39741.7897377361
212092.3744243257 200593.49665501132 -38540.489551573744
208930.3796527117 196962.6506109511 -36317.93746703639
210499.5910030903 199702.6385442316 -36271.57933466823
210298.5543469013 203016.906603422 -35266.23537136494
212525.6174515564 196453.5847153549 -35994.7125257895
213192.1965574264 200510.3369805457 -35547.84151454345
209590.0111934644 205564.4178878644 -39250.43294560552
208338.7967302609 208503.1299023626 -39462.69509665007
210785.3844994624 203149.887020322 -38935.67812755867
212092.9856828968 204979.2430308176 -38153.1695095338
211346.2898815741 207256.2006311175 -38243.384495418875
210067.2821304902 206332.7873546635 -36359.9162938523
211585.2433370122 207859.3149076255 -33971.282440414514
213150.8059453724 208972.54209501448 -37193.28148073784
213448.58711097212 198029.9309117329 -38076.42301838915
214834.05968671018 200407.0110308574 -37298.12501913833
216173.21426747792 197883.7293607196 -36851.26110359373
216065.69273131562 202333.7692165505 -36294.88133947798
217161.1380676016 200213.02323805948 -35630.42608101143
218372.8600735593 197722.2958247454 -34864.14142344744
219364.5036155468 200106.74969016382 -33579.00146745297
213735.5019366126 203259.6183899484 -37561.57208726188
213752.0547335768 206042.2704363023 -37270.58843854253
216129.1118292004 205021.64053656158 -35700.22367591942
215365.47880631118 207974.7920748399 -35736.05956853187
213411.1114636263 204483.9401354566 -34782.43253745573
217988.83434703152 202659.48983407058 -34416.45361736266
217126.95112423712 207360.2809086501 -34216.92656499713
211966.3875294283 197641.96894501647 -33027.02543045773
208944.0789309947 197227.8146748263 -32205.59668262255
210315.3382030128 200772.3150310758 -32816.755295912386
215212.1470750376 199456.7582175072 -33049.78215955021
213538.2036739744 202327.4054452086 -32258.207281043447
210564.959745767 199713.7352155313 -29568.05859410522
214695.45707406852 196947.33822338982 -30380.65134590272
213662.5044448507 200009.055078381 -28127.22675517971
210429.62009084102 205160.3413349719 -32052.257548523776
208333.10704758362 208074.09309077592 -31185.322953953
211239.4296442753 209088.01111604588 -30583.421910596608
215381.9509143322 205787.52988580108 -32281.364669416616
209996.68996340988 203258.00655607032 -29642.69693664633
209449.3368505417 206974.93193147078 -27481.76064646347
213654.55936746302 203510.5337059517 -28845.72206458688
212957.7150880918 206723.57060893739 -29537.44322858164
216812.7800756908 208981.75556033629 -29508.11416748855
218078.5110523639 198360.24405763188 -30960.790000906938
217140.2025500656 201582.4122688141 -30173.37346440375
220556.84412842648 197558.9171622687 -32859.72061303578
222568.5797577569 197367.9174030233 -30684.47030993152
221538.80803817508 200010.41861477421 -31546.63147236819
222146.5773770027 202433.4649180641 -29904.77165278724
220899.7815364438 196810.8441951422 -29292.432840549933
219702.72351686258 199236.41588689218 -28142.03099481565
224234.30335990552 197129.6437152964 -28237.306012491063
223199.6814342486 199784.6348207595 -29097.39242152725
223801.8404287998 202196.8432938623 -27470.72297887818
218941.1704830167 205344.1631177325 -32957.97037699775
218374.82108472512 208363.5748016869 -32784.74256643631
220295.29723926442 202626.6782651082 -32237.54877107063
221045.9523441252 205073.8422563905 -30700.69657757278
219965.0559387482 207863.9300459952 -31305.198528276927
219752.8272594585 202944.9029769411 -28639.287990632318
217637.5030005064 205888.7217796224 -29147.06543661412
219195.5877178235 208660.5819392863 -27386.84849844569
222693.8322648188 204845.3134303596 -28284.5173998301
221555.9167006845 207482.5197313663 -29050.63672635174
208689.0320010838 211029.90963126812 -38902.99240192772
209801.3240060081 212768.41715592518 -38091.16408684316
208864.3035418285 215488.444290576 -37876.45469367546
210467.7230635873 209852.4886454557 -38295.24430396538
212365.9722064701 211813.4806074353 -37127.06529786559
211582.9351779944 214670.8614679745 -36936.96294521004
209698.0182996682 211414.0542772622 -32086.62120548338
209274.48583527602 212270.6423106663 -36212.94179388669
212414.0796142518 210761.1467666952 -34162.96838320632
211121.27061866 214500.00171866172 -33800.152554336084
210575.5884823771 217467.5611192871 -36553.30870413058
209469.43754471888 220088.3513518532 -35800.7433979686
211880.9732444736 219171.3313129051 -34524.20534564418
208739.40559574252 218595.15052797098 -33986.2617435914
209322.6958078521 224255.96255813722 -32853.22890367782
210690.4233488844 221787.2194853917 -33768.91662470689
211944.2802599746 223484.48409522232 -31680.34102578833
214683.7544901849 210811.05458552518 -35598.03364007271
213858.0540338087 213656.3646566977 -35403.99420351756
216905.2329699969 209951.3536587428 -33752.526536229874
215990.9723036158 212722.62594461231 -33765.32630828466
215226.9554241361 209384.0332013512 -32494.51474730078
214100.3472818048 213158.21934740568 -31850.72983954711
218827.82782237252 210317.913586743 -31829.573849725497
217718.2639183908 212288.7914719809 -32288.797402390843
212907.0037944948 216455.10278450372 -35087.98938549678
215186.5197765911 215423.53864987812 -33504.799884144064
214148.0615639247 218176.498246184 -33186.24156551557
213079.34984813328 220894.61270556628 -32550.71658251493
217195.28504814638 214374.6072555338 -32069.771914942885
209409.058721957 214095.6099842995 -30469.92289273558
211240.2051856611 218288.819188769 -31660.25945053593
214320.3102048786 210885.6696695296 -30169.46099614547
213473.28089764368 216068.11828317048 -31150.587507969172
211678.09638482172 212655.3593887789 -27655.30522513797
211006.8577388448 216593.190772947 -28495.197768598322
212569.74214127028 209374.9169279228 -27915.34907808142
214142.3481441392 218187.4498217403 -28709.70794158108
209154.2872619373 221521.93945092522 -31145.86842903246
210444.23138757527 225790.58476769962 -30563.798481698028
208798.31451892512 227897.6543378292 -29273.03332859853
214454.1613324074 222152.4686295309 -30186.36586338195
212823.31658233659 224768.96927400402 -29284.15059647623
211476.33124810492 220757.3147538924 -28966.81300193838
211340.5881691444 227039.3782468351 -28042.47439044952
210040.89661478248 224005.2560440235 -27948.38500021807
214820.5039303941 223900.1426999867 -27940.180009882082
217014.3425235792 212502.9464903144 -29616.62060215546
220381.85026763612 210086.4759442243 -29761.03667438761
219021.56840166048 212904.7047662381 -30484.40598228163
219556.6912333775 214965.0013929787 -28595.528203560178
218398.7326410777 212633.84263562638 -27043.379196386082
215270.6959922899 210859.71422448131 -26938.44212312494
215520.5579109348 214801.8643441721 -28476.2187561373
222049.2270171363 209864.8942930818 -27354.84687732183
220795.92272055752 212449.1226115743 -28069.87055987794
216507.5292107881 217282.6266983601 -31549.40744715149
215025.74686048258 219831.911875831 -31572.1237988998
216495.1927934688 219740.4244222762 -29711.07403906736
218221.9022550183 215440.5657614951 -30273.58981076175
218114.95323353758 217437.8989129629 -29161.01754907083
216514.5094919696 221977.7541754687 -27737.768824459512
219769.3895903845 217276.26278557308 -26910.58718562628
218169.9508151714 219714.9945638618 -27446.61768656798
201282.2386179124 196426.63452030258 -25486.86443404178
203379.42818526572 198321.3453988696 -25903.692445292487
206159.2561556378 196860.3869229102 -25766.11221875342
205248.6364669744 200491.9463757651 -25547.537983790608
205941.4298056453 205213.69915779392 -26786.709782856662
206507.1369673786 207485.0780096896 -25713.28380371409
203258.8970724108 196470.7782340321 -23337.84812441311
205331.2197511583 198545.457678644 -23327.423553717028
206498.358626857 203119.4005532965 -25059.40914293591
202634.4126720529 213531.5364329828 -26770.062959679588
198205.3512138448 215503.0179862102 -26475.43940875219
200709.1694077874 214890.14892418642 -26121.707093943718
205800.30825193238 209861.5908837171 -26222.36288516109
206002.8740842596 211744.4848447411 -24464.09376410121
204746.3744925057 216101.9038078398 -25449.48624148179
204240.9689067255 213658.4023652031 -24634.90901594574
199651.492292507 216248.09178939258 -24027.767624272423
201356.9766370262 216541.8219384371 -21746.72107550176
198166.48816737448 217139.6723524376 -21733.53735914186
206031.5061462154 213692.1067450709 -21874.21185459045
201960.4296025622 215411.9556729159 -23975.12281518368
203758.2458502093 215131.48416964588 -22637.9906590912
209383.42326343182 196116.2293488201 -25831.91747010672
209764.8206677938 203113.9906472172 -26423.35972116061
207344.3079610571 205753.4319170869 -24143.73205314828
210174.9662338486 200067.60291042432 -25870.12799503692
212240.5426632608 197831.94076245662 -25624.76997755725
211840.54549549488 204882.2477781448 -24941.38876879321
208597.5967616092 198381.8427425442 -23809.745240351058
206881.4685300956 201012.3920109699 -23091.85673996444
207884.54369661512 203726.0946081943 -22545.41148153169
208380.8314793296 206533.2384479511 -21847.19103802485
210580.0715939221 201811.66823959252 -22728.43508073521
212652.3389980929 199412.3624525088 -22716.256223529923
212731.13183152198 205141.87033244618 -21601.53887605294
209137.98180343967 211017.82074477943 -24268.15493878281
208119.59035824318 214682.7879544383 -26763.74494679614
211595.2733316729 208745.77405918692 -24676.22960471103
212812.0604979461 216417.2819254483 -25463.76178590784
207328.82308463802 208823.8532765107 -23811.76563714456
207380.16892468638 211233.6964027005 -22316.321047242658
206903.81856266482 217812.2441640546 -23661.21789492004
209038.2164548538 214464.0386822344 -23453.791084577533
211072.3452431811 211788.8819309056 -21960.29853821982
211967.4478967317 218275.60095619218 -21915.1690268392
205001.45477243798 196783.0043038893 -21061.52652126967
206864.7941183403 199048.2519331053 -20878.65156654803
208163.158250052 201650.44423235158 -20490.01772896646
206640.7355075677 197223.9230034738 -18667.14675615614
204425.4982767916 215674.5812437479 -20074.78740473627
199511.42390477672 217692.42501319828 -19268.366495175902
202449.4942472895 217004.27018627367 -18901.86110339659
207957.7034655097 212038.42830043228 -19926.09245743095
206768.0734717139 214497.463985764 -18691.98595098543
207681.7308194963 217032.4603590309 -20478.3565645364
203696.9686493827 217347.9354055332 -16239.661706365268
200807.7248069267 218205.8131599424 -16527.91028573812
207761.764336616 214410.21477363817 -16772.07588427979
204986.7115431503 216155.88300019642 -17855.22123632794
206469.917517178 215898.0446542749 -16069.169358781099
210405.8007894663 197650.49336835218 -20332.20660613612
208251.107461943 199634.341317416 -18359.47201397749
208963.9032646507 204412.3257003711 -19904.09394873613
209325.6084583662 202330.8058871362 -17941.83555221332
211699.2913114629 202212.3945286137 -19528.72860538682
212507.21546354692 199593.2764763865 -17776.95128323182
212367.919206356 205498.8021420777 -17844.42285479739
208272.3676967565 197826.0969357761 -16042.606287837969
209552.94905889098 200394.8799316531 -15900.82080670193
211292.0946943227 196559.5915210133 -16181.868223093901
210011.1928575879 205102.16275103638 -17249.60083085007
210414.0437859086 203104.86256222732 -15384.62156780767
209343.892953926 207226.99068576112 -19162.410661239923
208399.20141267212 209303.4540205182 -21069.667445368552
209273.729173636 209983.4135065431 -18358.99577570987
211271.3330717904 208588.5714910495 -21145.739821104053
210451.9315116587 215148.4177717681 -19033.91819985347
212398.6959237242 212249.61176814 -18343.08528323123
208791.81381447962 212469.81887943821 -17325.52000505157
208225.6531298536 216785.4227564289 -17482.20327801086
210189.39757733158 207874.6053894771 -16763.92303478777
210056.5820328942 210007.72713157992 -16247.14593552688
210783.46883991238 214327.83880946122 -15928.39644878009
199755.7509599411 220753.8057250645 -26413.61998849192
197464.5735316253 222089.76489004062 -23755.19473285125
202999.1250853346 218623.8911909367 -24852.25146017909
201184.8468253266 226700.4296913755 -25912.46759477074
203177.65020566198 223255.6395211801 -25355.48755012072
200394.91450861102 219644.11372594442 -22833.42773480564
200238.34061870512 223839.9521896103 -23294.51246678309
200344.7299918469 227852.5435938447 -22821.46369831216
203769.5201299771 218429.38985164018 -21503.31029288263
202680.6956880142 221649.1928001152 -21492.69370282179
204063.4570468806 226095.07743081183 -22646.44085796742
198434.0680229736 229550.2921443188 -25383.82168095517
197475.7886639068 232173.1704825111 -24793.38528410855
198212.3993305556 233889.8197944574 -25847.32940790581
200773.9547382238 233470.4796766025 -25486.33717693079
204814.15187292668 228126.2865420912 -26543.48581549275
203250.2005412168 230069.1798923982 -24843.44842786306
203413.28198670622 233192.7960148459 -24819.8275048054
200446.5991120748 231349.9595540613 -22462.277478739332
198991.02249632592 234745.41403554098 -23694.158608692782
201314.25954514608 234456.90465651982 -23123.72956318787
199042.4498341306 235538.55232626258 -21551.82887543803
204271.7866400264 230246.42321730749 -21652.80767283162
203968.795732461 234103.246614968 -22212.55853331031
209004.73204364142 221930.6798828669 -25121.06675384926
206975.1420926977 225914.9980553679 -25212.60466317442
210677.1155369881 218953.13315836468 -25517.184486826798
212823.2137553713 222974.20380952721 -26492.36272613503
210209.7228746766 226433.4197890885 -24413.28831364323
205870.3766465126 221373.6330715549 -22023.13389551059
208325.3774693196 223480.8623040265 -21423.41093443051
207621.6997326088 226734.84558426752 -20935.29265400639
209269.54242319122 220317.564729596 -21867.96209186934
211468.14310913792 222286.095657635 -23176.40823430685
205321.877182807 231550.71043418229 -26403.036518091893
207931.053880446 231050.9453515936 -25333.08042186094
206041.0785377462 232703.0349003216 -23854.3910207603
209693.19377852112 229125.79001739682 -26722.274681005
212249.894370623 228269.5068729955 -25478.947520186663
210541.8952365114 230285.07367040272 -24123.84345692153
206859.7853460827 229418.4831565372 -23098.956530812073
208645.1391224926 232026.9761188091 -22640.57084127985
206675.2893870561 233589.1992305815 -21067.07459213399
211019.1027956603 228278.5532985691 -21443.45370374341
211199.1373685598 231168.73336278228 -21366.38423252389
198675.6232480896 220951.9411718341 -20198.60311268451
201493.57983721799 219699.8070934327 -19168.97864758782
201200.6132737133 224025.13636235928 -19708.39049019067
202086.4756417236 228151.4912489155 -19271.52288941738
205021.5447520893 218966.9604332801 -18945.1148767177
204813.4850134876 224293.3846816143 -19777.898597091687
199678.0872225944 222299.633983864 -16845.823278407428
198075.13884898298 218498.6873912046 -16827.72350772034
199551.85087316262 226687.71454338092 -17048.08976612897
203398.18901315148 221419.4513850655 -17422.671747843222
202753.3778110618 225257.8468608812 -16715.66487661078
197505.9236173738 229416.3923765377 -19105.41772678042
199321.5874899265 233533.3282774596 -19796.477662395428
198800.8825856094 236677.73953740022 -18687.814705002602
202322.4860981478 232903.24515332052 -19646.45532287132
201699.36714216002 235363.16400958638 -20553.0685883916
204590.4718682777 235006.3830075089 -19426.78359900679
200856.9656521598 230814.615611355 -17190.41794744135
200303.7084307992 234135.15248655822 -16223.04329363068
200071.4895200226 237484.82667781762 -15782.91303563302
203405.3156563435 233472.6894792111 -16513.796703300963
202202.5760827137 236346.7003401676 -17681.48657118793
208332.7133233336 220273.7236293455 -18729.026325745628
205599.762075106 226896.9086525257 -18376.67094481243
209011.3427995801 224226.1788362831 -18246.47766088387
210794.1422802173 218433.16490068322 -18830.63779032563
211744.7122097598 222377.91801446452 -19688.73842141222
210912.33183925558 225810.5912442798 -19669.311278909132
206490.5895141894 222683.2588788872 -17477.46343532232
206267.95952616812 219486.6231331749 -15636.52796540188
208214.6793535295 227068.7182915426 -16607.10667287534
210296.2523343945 221050.5667515914 -16121.908089981129
212762.37520068072 223318.62717113568 -15657.35836777419
208328.1301539405 229849.5813145702 -19709.75261718193
205281.59166978468 231740.5236089383 -18731.41868826434
207322.5936015844 234457.2923229429 -18302.17173373143
211915.0327211148 228989.72710844318 -17737.85698893641
209301.0526141661 232892.1472974864 -19868.42441077179
211850.1298772722 232042.92905349028 -18604.38389181786
205227.269931733 229587.83726890248 -16145.21777239385
205181.8571830771 235950.2446534534 -16542.94008077263
207907.0914017453 235236.733508831 -15453.284916523691
208790.4951826202 231680.3527679842 -16859.81571381319
209946.8813480378 233757.02333514788 -17102.22855505148
212452.47246233962 232830.876404746 -15805.562824317469
214165.6310040617 196104.5550810133 -26699.75905913318
216371.236513495 198828.7974630212 -25758.016168239148
213036.1972889922 201477.76607342833 -25278.64736954213
219917.1365487092 198663.535414474 -25208.90005265439
218921.196790304 201477.5005972578 -25664.388449853628
214938.179140748 197030.3531695732 -22276.37287996171
214990.27282433 201873.4375041594 -22663.50701304327
219587.5255359222 196591.6475397667 -23055.266274439782
219058.4855666978 200634.261098977 -22481.20192245548
221383.6417779192 202948.6734175308 -21217.52748858927
215991.71196394268 203584.8381212331 -26056.26681333934
214715.01982586342 207653.0793242799 -26604.01370058802
220050.4239583975 205763.7642922765 -25837.27486828931
218703.7899722199 210315.903603563 -24796.96185269341
216101.9589708492 206933.027008138 -23721.95975261213
215470.228390363 210601.9718174328 -22140.58088343034
218195.0479956363 204110.66519987138 -22832.31527482224
219504.0629732309 208895.3345793172 -21468.91033774898
222435.9420059479 196666.5807633655 -25730.32274529539
222131.020892904 200051.2125049021 -26757.09215664039
225869.5443478956 196907.7907637917 -25831.33250901476
226442.869378651 199294.4224584922 -24175.712902093568
224866.4260840126 199552.1789688864 -26641.19626940084
225475.3127248381 201957.2761458451 -25009.81373922739
222592.83746518678 199736.3862719603 -23632.56907546415
225247.6703225444 198018.3923156475 -21948.94543154428
224115.2348084618 202204.72061840622 -22724.61554617336
227289.4378864319 196573.9395003439 -23344.65098465001
228377.38813137138 196065.52604331862 -21088.46958632729
226785.1663932913 201673.9108473202 -22390.789081572842
227845.6434393767 198789.1707425478 -21238.0780043839
221788.5459552492 202860.82417428572 -24935.1404398395
223251.5433656605 207233.1973609981 -26586.91558653625
224383.22309575198 204599.67830154262 -25811.44735962292
224844.944190303 206984.11103153983 -24103.3902720274
223755.44442713851 209621.44093136129 -24895.75328307615
222560.8058351431 205989.9983370043 -22673.37956919771
221819.2206926395 209125.7271337188 -23960.61611761876
225846.82738560782 204361.86323513353 -23227.65808081437
226049.42037899722 206792.440396344 -21549.351592645882
225060.5520940159 209333.43971377143 -22322.265324244992
216366.77343486183 199399.50082278321 -20236.96330767388
215042.71775630012 203289.1671037414 -18641.57409629332
218447.08878641858 202198.90831350052 -18544.8126658478
220757.8344670959 199522.14730166888 -19195.62636487836
221985.3282550686 203699.9360548433 -18368.12759371902
218097.2198426537 197269.5564683974 -16827.911482353808
215907.6633112878 199760.07381021298 -16168.35177272652
213318.88659502578 201815.80571781812 -15245.592094023561
222654.5312903687 196564.6245454777 -17630.72742264788
222067.5962250331 202189.0177222286 -15701.04884527176
218107.7768996663 205893.86637104242 -19989.643355828128
213753.7399546073 208331.6055410378 -18984.815857104808
217862.57284552828 209183.0439981056 -18067.6808516228
222766.8998222801 210489.29961479479 -19472.94271285801
216251.6377904986 205962.7863721644 -17008.58373366334
213691.7433002055 208019.3356848902 -15637.911220398379
219770.14404177121 206176.2788854596 -16994.3606965408
222148.756481161 209561.0295052876 -15422.609577309791
223005.6527643949 197235.9437615697 -20603.95481938457
226412.2953688433 198119.43842818768 -18333.38075896892
224129.5265364119 200698.3509695034 -19517.52957952193
229169.3391030257 197001.8169425542 -18941.28195387171
227889.10612235402 201408.3050819822 -20035.23741817522
228888.240180375 199766.1937491805 -18479.88840332476
223850.6813583544 199323.3697449435 -15905.46291436644
226565.0966857824 201857.52403243422 -17289.72736379394
230090.80331547072 198131.524068111 -16310.70662549536
228543.32075870098 202677.6196179642 -18003.235525923992
229687.81934655292 201048.9342797812 -15922.76061349209
224764.78511832122 203826.51455966398 -20286.36708360428
223213.8719777377 206646.9851786362 -19161.64835923892
227242.0163093821 204225.1179925358 -20195.29786973867
226331.9248541439 209044.46407181773 -19712.77809052818
227063.2454399661 206776.6409470354 -19327.90066754341
225061.17185552118 204487.5838668862 -16810.57348680032
225399.1095350493 207881.7025786446 -16382.463096657091
228131.4460746416 205515.5172117656 -17600.25021399691
229246.99133189922 203959.1492896661 -15522.38304654133
227627.6424646116 208299.6697343965 -17300.772175719838
214452.8197841247 213218.6258443837 -25014.87351472817
214559.55344095553 220401.78955614142 -25626.73062742386
216536.49252649088 217318.8805631217 -25957.76938798881
217661.0354256928 214481.0750688393 -24460.959115286918
218246.66400338092 221981.6684408719 -25484.16559300756
213920.7882128849 214787.26469226708 -22032.89475123501
215829.1837081097 218006.9714414549 -21973.14304729083
217340.52949340368 220871.2417707997 -23194.50761075739
213727.5526505432 226017.5484428035 -26792.20443256539
214656.9490904574 227152.21788933862 -24237.116127507332
218161.6544284468 223975.2606578648 -23278.16775654517
216243.5580586836 224468.5536510468 -25610.345218146238
213678.08644078657 224994.4042982456 -23223.86523372731
215072.73261245489 222503.86958130202 -21015.07630314341
212992.23075962398 229274.6877577257 -22785.472102664142
215244.2272553448 228156.62060510932 -21473.65887347891
218181.0829291832 225314.5895165456 -21281.02252356302
216650.36740604718 226162.32350455498 -22615.48839758432
221227.4394027816 214744.80601215648 -26276.97332454332
222526.60790393842 212229.437535991 -25606.737915406553
222800.66377509062 214553.8690027142 -23793.9808738971
220583.4164974824 213035.4904011995 -22676.16667432866
223991.2593290191 211938.04539841032 -23057.31999643
225288.5057786844 211611.8984172944 -20468.43862883389
224160.8620596686 214215.1930124792 -21154.930825644868
219338.3108801504 216760.1621906468 -23191.53168287124
219948.7316456854 219605.27884298487 -25063.62713120794
219808.5667267832 221774.915722745 -23050.65638549421
221480.379992013 217119.1096575118 -24495.6188307061
221272.4600578875 221413.3772059427 -20625.799384763
219662.7513311382 223541.79552769 -21106.333312529317
222883.0694117088 216805.1440806672 -21845.50300148928
221445.41925815842 219337.03546851082 -22481.216711962963
215205.6355883118 216972.6323788697 -18512.78184541075
213547.0813913471 220194.11717407109 -18252.06661165461
217182.7113911757 213502.20501038898 -20039.26430313965
218442.9088860743 220475.2121101406 -19687.25654597992
215538.1747170651 211078.93549752462 -17514.61930825231
216510.819309026 213876.4663128657 -16056.46459413568
216215.8565174592 221534.009677781 -16809.23423425935
213166.5577803201 215937.59008744042 -16092.10548216699
219162.04947882012 211561.4249308504 -16004.349891784499
218666.8959403954 219393.0889040893 -16194.111397282739
214551.7829828022 226030.6945520168 -20235.378721544363
213656.50161844288 230168.71248579118 -20033.01562329176
217609.7662165395 223419.14106425302 -19611.54676681004
217353.9433999417 227021.2994096086 -19999.9550939819
216019.6122603493 229038.6602567706 -18634.62354676559
215037.7106992232 225010.323045462 -17702.80477656299
214320.1144750354 231061.9784146332 -17280.11210138277
218749.162817469 223362.1629492293 -16150.460320548771
218259.4647298669 227759.1717343647 -17163.92442413252
216621.7579557535 229855.0133456515 -15843.9432364227
221039.4788451378 213797.1829613497 -18932.677301463802
219666.24524138978 216984.1831520385 -19397.07183419598
225449.66546185568 213925.34471531972 -18632.39140065992
224268.5469409912 216481.3890963136 -19239.138666248033
223121.4340850901 213525.4238058308 -16216.4164402575
221833.9432945725 218207.7202388813 -17009.62065317763
226825.5643685207 211331.9513006866 -17333.96155287148
226542.0361381162 213962.9389666786 -16118.14502781423
225565.39980391652 216611.55257882128 -16286.45618480051
220899.0596172382 223192.3710033646 -19166.272656141453
219480.03895112028 225383.62427186 -18798.13592956977
222883.9292611213 219029.32490969822 -19878.14624358715
222449.69950063588 221397.365659108 -18285.930532318813
221590.6650949593 223876.6036593939 -16934.99899970743
220268.3994471438 226241.234044122 -15754.369619676689
224077.1808468633 219066.6774730574 -17383.35612379499
223540.35258542481 221693.1852970306 -15392.94781999144
170241.5251759114 166759.9917250686 -12842.958514206179
171450.9072719219 168382.96854420178 -15013.89899873427
172716.9909335451 165821.04649161373 -14201.88674751597
169035.8535106618 165141.8691102614 -10678.67173726593
170164.3829491651 162580.62591444762 -10002.09087955363
168100.9752935723 167907.9301185216 -11152.87394240816
172845.8690307318 161685.5471973542 -11058.94969540514
171469.4042061932 164170.26279538168 -12100.09694018837
168329.2864101654 172274.6646369519 -13943.32119343704
166609.6877632359 173471.2040184073 -12041.72473701776
167443.6611364653 175062.70324162758 -14292.246388250342
169217.6094424847 169481.3102208699 -13397.722218705569
172433.90075594478 169339.03197059102 -12071.64455616315
170392.40483470788 172894.5879058125 -12590.60498270872
165783.7178589802 171814.4915846081 -9775.68339905432
165143.800979791 174456.6495002047 -9916.868103271814
169596.7845143653 169696.40063265688 -10377.777535204039
167362.8923695951 170733.84458133238 -11706.18986595754
177481.4977145693 161777.1401893521 -13745.60203708378
177045.5959596664 163664.81993002837 -15122.59354478497
174626.3247575057 163229.7128965924 -13386.05641351444
178401.204178787 159487.7883797129 -12188.15792854425
180198.0615275273 160750.0962739847 -14169.947947261999
176621.1838202837 158201.01783752823 -10187.81328300916
173911.605528862 159288.1168074994 -9692.899685476477
175631.2378538436 160619.2258523971 -11767.70092533373
176835.93960256828 164176.9975555035 -10202.48984198505
179374.8341828288 157177.43995021022 -10568.69180165789
179939.4975413779 162480.9782181961 -10131.67220314901
173887.0786727447 170356.5152697842 -14660.06948987471
176328.3683251194 166878.82898980813 -13775.4753724529
176671.8306847231 170634.1237404824 -12861.43905278232
175376.0648607894 174852.4572708738 -14066.78245797519
179420.7896455763 168074.30984002972 -15098.45889183543
178604.0352495539 172568.48342177592 -15224.432672861702
174432.3204702169 166831.39085604172 -10281.44987402655
173602.1417149434 173483.7269852236 -10856.26503091371
178414.07929316058 167625.5752307472 -10072.125929550371
177961.5611207156 173984.4052055673 -11419.83295559907
167828.2968111626 163527.2120587813 -8515.803661507305
168880.4342747624 160982.9887125762 -7901.090610270756
166991.1125876323 166332.2533025078 -8915.623233860266
171323.5007531491 160192.1948786074 -8897.274554840318
172207.75292340052 157989.01613635352 -7683.230148804475
171028.4427494785 166444.9365276926 -9302.360838405048
166560.04923818362 161891.3817540281 -6408.063602518772
167411.57170175712 159260.5981102387 -5839.966797107918
165811.4289936744 164733.6009741362 -6720.787888337973
169765.4964505903 158714.2808620722 -6833.51329870468
171147.95146211 165543.1433535238 -5947.357036724909
166339.65583196582 169152.0144391097 -9360.916377979494
165033.4575136069 170324.85055658672 -7729.519639602089
164514.1017499069 172539.0939637956 -7742.844141812673
171754.163002901 170072.6934599831 -8430.387457911058
167993.3802465076 171247.63622141047 -7824.317822888816
169435.2171696464 173103.4080029605 -9255.44078118284
165055.62124621018 167898.3620593165 -6824.388753817523
163796.7810058408 175420.7496687328 -7520.75251470524
166518.51022910778 174538.4458940411 -6908.973304378127
168487.0777091939 168477.1425877153 -7096.535988423938
169707.0054017181 174930.8757301069 -5746.007139321569
174827.0791402003 156923.4628338851 -8195.868821646895
172778.5406213574 163107.1507205262 -8443.15201581048
176459.9329739276 162043.0599117426 -7871.70437489941
177578.9726828239 155889.6629615027 -8589.97619339038
179509.7696929819 159811.0059335876 -8315.050900894277
180239.3988567839 164460.5939728456 -7206.948009250143
