866
172750.9110731812 137162.3245718235 -73576.01322611075
175603.9341834318 137524.3294925424 -72253.43981719577
170362.0639733434 132380.6083191899 -69906.81331597776
169326.638714373 130129.43835512741 -68116.24818691515
172020.4903229775 131190.6590269315 -67714.42293483662
172997.5991909501 133363.1343699572 -69468.71565968954
170144.6936367141 135070.1854192549 -68231.00843504316
175142.9351654236 134071.7175463446 -68877.77726651389
174788.9611844022 132273.0308068666 -66940.25919800627
176989.3108360969 134047.1172105803 -67547.4397191695
174984.6992462325 138066.5634347516 -69333.08962702574
176245.85339382238 135718.113875727 -69906.61556761217
177160.095889467 137853.10743991702 -67076.21336143647
171005.98131757393 141016.8284680644 -77321.27026796306
169199.4525218529 140973.131554896 -74998.62007023106
172608.3663435615 139342.904920564 -75569.11419730057
170483.7810552294 143590.4413737236 -79300.78610839826
171038.5874991303 143430.8023264812 -75634.94911802451
174002.5789488729 141352.073571712 -76493.47024481627
174883.29199931328 139259.8773890889 -74537.82640106276
176650.29643159348 141369.14466710069 -75368.236713555
173016.9645244439 143418.42805328572 -78361.49917144411
175799.6817926782 143475.7252511992 -77280.14641833039
174011.9056585233 144198.27094228528 -75565.75427662906
173027.94793486482 141350.5304783637 -72490.01227526796
170492.070944418 141215.6817989196 -69078.93667435335
173689.00824807718 140577.9841051453 -67354.44935023462
169369.19725547178 142794.08345157048 -71546.68993066481
172561.81559447022 144329.74443434092 -69098.61071569784
176161.7715071495 141160.5853061938 -70818.70097960425
177447.9812638188 139511.08678631161 -73146.93189474213
177346.112912759 141310.0753236324 -67609.28203950747
177407.35310997418 143383.1116961166 -72934.86371562502
162728.8817039524 126236.46128782291 -66680.0749319196
161868.6397278471 124181.2503879453 -64471.12141145721
164422.2622362373 125530.3019316667 -64981.723680317475
162144.807883029 128355.2012389018 -65120.318231704645
161697.9763804081 129277.58123618511 -62004.8234450159
164254.5817870623 127419.1959135658 -62450.406858761555
167155.6705495727 126140.50105479239 -64166.890319976075
164709.982414211 123991.0289925149 -62778.862473817644
167057.3714105655 124644.97086506001 -62167.64533343622
165512.4244179241 127154.3301824739 -66515.63822963813
168299.37867992272 128136.5257682611 -66143.81100250289
164754.1402630712 130509.1404073761 -64558.91606012095
162416.3599057113 122309.7265706401 -61876.15520834097
160369.16071308262 123211.4316301399 -57847.80162733335
162550.0951612843 120801.0634222581 -59761.15474114691
160736.1281604585 126807.42449282699 -60944.54037228903
161768.6390469189 125561.20422198239 -58781.85604409768
161441.6645573727 130976.11112346101 -59728.60857991117
162611.0755881577 128327.79374917148 -59500.2167155556
164842.7518581846 122615.6988467232 -60882.98583099386
167211.50424198128 122978.140240955 -59665.91132462366
164963.4363985615 121245.6847747878 -58562.89841856323
165363.0105877843 125483.2502268333 -59055.58794770191
167132.532005971 131244.968945307 -61725.21000975818
167568.9821211926 127641.7350844008 -60931.9628366022
164663.18365064048 130700.7350291962 -59555.728216668635
161736.1469723144 132022.1568328084 -66501.42918863262
163849.9053035082 134888.2842957719 -66180.4243436334
162089.5034934886 135100.7361891222 -62801.057978972705
161005.43098479262 142307.0723990346 -65501.81540165943
162618.9456983608 138495.1074954649 -65252.25206833584
163067.6304655464 141147.5861842306 -63051.761487329815
167162.272214461 135918.3721320497 -66486.81570141863
165020.1430331511 137367.3555252784 -62650.270251857175
166567.0441531427 133869.73641886248 -63821.70437627444
166120.4679785595 139371.16131013 -65551.84124489319
164635.7099032401 142430.9361975489 -66679.1042362082
167890.9606873207 142394.0681219407 -66397.05024391213
165328.89004284499 143562.89513110492 -62875.80873514883
161159.2384475877 132098.20882978992 -62093.97444549143
164471.3910632384 133312.8387164018 -60831.190175883356
161829.4323982048 133608.97976328438 -58376.95955167237
161560.8664841419 138205.94882445742 -60605.690024718206
162065.7153388942 142829.200457963 -59328.78825628941
164181.89953752 136976.25967659932 -58811.027585632946
167644.20003231062 135636.0197739783 -60325.25690386407
167653.67680785828 132335.8194970002 -59156.43930144054
167159.7454150345 140402.87476142502 -61007.51155097362
164650.0137560256 141323.0128111207 -59429.732811852686
167104.72698828098 143690.489966288 -57980.30266550415
170990.5986339134 129312.84108540398 -65821.98869739925
168870.81878320713 125908.04341695769 -62646.35729416898
168431.3555968059 130304.6941296136 -64059.95180762281
169958.2126825176 127447.23063468971 -63966.624742693806
169275.0059260613 132816.9446509444 -66024.20255709789
172170.5963514009 133136.9787169864 -64858.11715199236
169862.3546146411 133695.7272616356 -62231.08654341752
171267.2970351146 130434.7964288696 -62093.17407008694
173247.1186646828 130389.2124357403 -65506.79307156332
175314.24533479902 130718.29539617221 -64145.37195874392
172947.4322277774 128675.6115211434 -63250.67875967041
177780.1143328415 131133.0973756451 -62436.632771669436
177340.17859274748 132565.4280340267 -65008.92175560009
175718.8826936197 133881.68589375392 -62868.831028021064
169292.4385696957 124766.85024452399 -60666.19885370119
171230.4341174497 126581.6196381322 -61706.365403976364
169545.0635600989 123551.038084133 -58205.61892406647
171692.2527682544 125342.7286726414 -59252.70421782308
171443.15882152968 132120.04086971542 -59061.08084998874
169726.94036455808 128985.9973357115 -58638.14394072091
173783.5923197805 127197.0512612175 -60333.87039238566
175761.2252391241 129144.4266269744 -61380.65300567037
174040.99628575382 126025.9078953316 -57628.97545834691
176141.1878744256 127854.64366037429 -58712.177973807076
173130.1521423359 133488.8207536808 -61240.29986716964
175915.4166203684 132395.8599539831 -59235.131109335125
169956.37145119993 139271.7798376352 -66541.80734774646
169397.19882263298 137182.0269870313 -63679.85544820791
172653.3507050983 136976.64884905252 -62322.13687018017
171260.756082246 143870.75417339738 -65555.79707355224
168914.4505609805 142291.3511656757 -63105.95207330453
172403.8881841114 141119.2578723838 -63488.14972508428
173610.7804492646 136203.0314554543 -66536.47488349109
177656.3338009455 135676.63259572088 -64821.61224706786
175619.13850918852 142131.6894871755 -64084.91593443885
175808.63753234918 138364.63113118339 -63050.32511106667
170262.6463351833 141037.1154108376 -60187.007139328154
173553.67394131862 140757.0225568366 -60264.55128196266
170639.2172284076 137558.092219376 -58480.13237325776
169353.5563035657 144033.3489418403 -59889.40547815158
171959.07662176818 143416.7072310681 -59223.293777367726
174686.2464424505 136467.1865275412 -59671.92933250006
176745.8962117066 139398.90133648983 -58775.24433104035
174225.329784085 144404.1576476669 -60845.99100182846
177283.3683649794 141919.97984461632 -60955.11592532898
174548.4736746585 143199.2880678405 -58421.833646764804
176541.4194996775 144211.9912493403 -59903.77759189275
162108.0557179763 149165.1362457985 -82305.32327801186
160671.558653776 146886.6961618151 -81481.2925766399
162539.1183401285 144760.0464610479 -80744.0791190859
163475.8796959453 146842.2201460017 -81484.8419824351
162728.960597331 154137.13475783312 -83172.31101732237
160953.2426704073 151695.58596957798 -82978.19674724057
163906.2200592859 151310.615040232 -82988.57650471377
165071.8193499907 148804.8958659043 -82161.71922436994
168004.9665627037 148411.4788717717 -81820.36956963844
164666.98469417842 144679.1046861407 -80631.47189762488
166183.8140219853 146410.3138554506 -81195.0603925632
165655.5459012537 153683.3099465784 -83162.77657876853
168626.8285017482 153219.1080753543 -83094.58292174242
166865.1929218899 150948.7002088585 -82879.58172559827
164074.255686634 149489.656299524 -79777.56888771048
160669.1941481842 148338.9982929887 -78599.34247809659
162227.3145598491 145262.7629387329 -78409.21048758405
164587.1992741824 146868.7715062224 -77965.13384861837
163535.5461145655 153340.50785010812 -80215.28944499115
162337.9468095983 153913.965022305 -76878.83974547974
164280.54183954152 150875.15787743768 -76709.12477471755
167839.4602572711 148949.5812852609 -78563.35655228027
167967.01784953088 144937.03309293019 -77270.51200283061
166749.5788396041 151797.6848800593 -80373.2328607808
168388.72967051528 153111.4733813088 -77682.87964202951
161493.44558380448 157090.3988866328 -83301.81812899502
164491.30795599832 156521.2827720207 -83361.0680929199
160879.5217404461 155089.6773366249 -80612.54088510449
160524.2812597857 160020.1668618888 -83334.54478598958
162445.7910829786 162230.50479921908 -83496.73203823078
163388.43640433712 159394.4155803551 -83494.74412011582
162098.9888081861 161058.0668144458 -80666.23926874068
166325.18289794392 158833.826592364 -83541.59164985557
167447.6937457429 156035.4902101527 -83327.95113756601
167700.26593356018 157964.2485998281 -80973.82615578802
165351.7295115573 161621.17735638862 -83686.37794383918
168280.3484234342 161062.435535607 -83703.42685749008
167322.03746796842 163854.6433434919 -83877.82445817941
166769.4262281196 162844.4829095664 -81030.79081845062
162808.7101506464 156419.772904626 -77846.9968954771
163393.6589146809 157880.57455425538 -80525.54663370171
165216.51951066148 158175.7211782522 -76558.50223181078
165318.7139646677 154685.8409328487 -76263.01576864447
163504.5669101587 163859.7247880918 -78959.18933454406
162288.1970255614 159636.27441880028 -76349.8088551552
166553.4892364372 155596.10685258702 -79538.8880792402
168011.52299021068 156011.2108671942 -76012.11735738456
165410.45905057332 160333.64663240348 -78916.44912706659
167973.7156243355 162954.0573223328 -77328.09426315156
168626.024341853 158856.0108613127 -76911.38113823564
170944.57023965442 148127.51159407548 -81349.9079153398
169125.6106849295 145965.44355972882 -80744.95997065886
172121.6351701384 145636.8639756281 -80163.49097244104
169813.4147708782 150643.0981683422 -82500.72458393792
171596.0588922504 152904.0116549316 -82995.89134098461
170574.3415082162 153739.8969276252 -80556.48458457488
172745.6820599082 150414.07802772848 -81942.69691616697
173864.603144461 147936.6645113612 -80733.6048738024
175643.9357935514 150277.1432422938 -81239.39728357545
176751.6206516809 147798.5691868074 -79979.51769781148
174528.662946734 152750.3919615533 -82470.22899815772
177383.9738904184 152661.8521234987 -81694.3973947325
171025.9005752168 150603.4877031467 -78763.74964818817
171560.4523184326 146699.4137546777 -77834.20033960154
173527.820967193 148706.7739449728 -75776.71645828473
173667.47379267262 152697.0640035214 -78287.01589736674
171460.5109776169 154744.3277816932 -76190.01625472875
174883.76605619089 145614.041480705 -79221.26544915275
177439.4006888621 145633.37985747607 -78096.3668267049
177344.62672284347 148556.77703127882 -76445.11349595204
175066.4545048809 150191.9902514041 -78823.02688921694
177633.4032235998 152952.19694212198 -78341.55173546218
169225.3887697333 158252.2923526411 -83471.53302739139
170378.4395477244 155519.0029982177 -83232.08852583115
172114.0933434405 157942.9693167042 -83351.65160610864
171103.019671831 160537.5259740733 -83583.46472328287
169923.2430707826 163220.56928542242 -83829.03308385782
172790.3859345628 162916.2240245803 -83649.17943746722
171640.7284319282 162605.1258176586 -81230.4818289246
173294.3717233013 155303.2458165799 -83109.19614137558
174989.5546063341 157722.2918095143 -83196.57415668879
176291.5711069833 155119.247549458 -82914.19836258564
173788.8043049445 160175.0889933605 -83423.27205637141
175673.3340541826 163088.84427132882 -83458.63165490536
176761.2367110618 160268.4073348692 -83251.46274777317
170604.4903365032 157028.61140986992 -79021.77928356161
173758.1680725019 155855.9146843421 -80243.98106175156
173949.18412502052 158190.963072095 -77249.92389670128
172477.9395818749 159202.3761284921 -80802.82359820648
170060.36663415178 160541.75736900582 -79277.4181963778
173640.4779776979 161434.8778969523 -78334.75167590832
176971.2000669909 156415.474497479 -79941.68558063867
175408.5505588706 155516.61793772128 -76324.57160447561
177730.4517971364 158976.50735198808 -77169.51550225621
175962.2907074079 159579.9540542298 -80361.19103255856
177386.071224476 163347.27010427762 -80988.13115236812
176866.85465678078 163472.9461285166 -77270.11476770058
161315.0332570884 147277.131436538 -70812.28178566055
163643.98554193802 145380.2952109026 -73047.9378493881
160635.0366614725 146487.81188217542 -67191.86128264821
161214.9433117722 147939.8273214823 -74485.25315048426
161118.8096447098 150399.1140499741 -71180.36710279196
163681.92194217572 148265.4367173796 -68950.95184690676
166250.7730592965 147871.8645590445 -74788.28168434088
167835.19616865602 145227.95096760752 -73265.4186554666
166021.8414277123 145275.42270382988 -68780.36420356935
167335.2848665562 148112.7650561038 -70673.08935754714
164570.1810452374 150480.49239381411 -72071.15630409181
166521.03096652392 150105.88236416457 -67952.04408703606
168489.50995041803 150442.5456404938 -69069.16224733256
161808.9487380409 144837.3812240443 -62149.71716635475
163681.97601742757 145672.5675195157 -65216.471899021155
161979.10153378997 146496.7077461867 -58936.9089594523
160672.34225176342 150359.3198009266 -63530.943190919206
162047.75604839678 150499.93819813032 -65465.99298445024
162938.8381289641 148805.58724871321 -63760.39719069559
161403.33121068432 148363.31280842982 -61349.79882253347
166368.8760255402 146682.1327661294 -63076.48997712888
167086.7996859901 145134.5840193805 -65578.33674464942
164472.45679313163 144946.096700943 -58525.234234346404
164076.3087930767 146738.623822324 -61443.6571123439
166682.7978727232 145160.34577258863 -60641.740229038114
164094.7088207519 149712.466696236 -66272.14730901612
166237.110465161 148215.737756206 -65605.95607759652
164718.79271963038 147798.863118812 -63762.17155401805
163414.6816591069 156383.98584907549 -74602.61718362666
161408.8345557727 152104.2933624511 -73987.61654084318
164025.6673532106 153598.73884821 -73661.4904169533
164654.89607968208 162582.7223050657 -74408.44019630218
164837.035558934 160302.6240086742 -74047.36157235317
162313.6915259185 161026.3574798931 -73135.29205317405
163760.3069932172 158399.5262969432 -72803.58663407403
167127.5520485297 151600.9604582382 -74860.78931389679
165637.9345801522 156229.87493147532 -72578.3367801198
168386.0333632938 156537.68124886492 -73487.09951005793
167464.254326608 161374.0212863473 -74540.55496590756
166448.5652533667 158544.9957582653 -73945.39170805663
162526.29585677412 154069.4737927829 -69429.18502606072
162312.3290948061 152071.9062012553 -67395.75734599998
161050.8229405193 158365.9318312178 -71551.8868224796
162867.40514049502 156015.32191003408 -71433.03920727804
160595.27237949002 156243.765252669 -69588.34980738029
166975.360373117 151929.2557992972 -70121.53939222866
164460.6143985937 151950.2243382495 -68785.70419777319
167654.1523966715 154077.65276745308 -72045.03757552715
164859.9597229943 153851.0912114158 -70956.21491130521
172746.2646149745 145798.5454262374 -73028.00566381242
169213.7315135855 145102.6885025822 -68358.56692608196
170523.5630246364 147008.98431189838 -70565.76730213083
169763.5688273804 147948.80267117382 -74710.08606317754
168666.55934633498 150184.8872374124 -72215.02685082154
172144.4074119538 149774.1916865848 -72519.26060274108
170775.34094348372 149672.5593155267 -68712.08100692101
176624.3254495921 145676.3992233502 -75084.71918121418
173450.3269109784 147422.42008108032 -69534.76990649145
176041.2267014475 146059.7056180499 -70462.96492013383
175180.7921513489 148781.2250736424 -72521.15547779735
177661.26090709612 150704.7002641608 -72811.33229264345
172995.32395687109 150829.1190642883 -70133.81908708802
175735.4031249969 150245.1734619062 -69145.28590703139
171353.4838534699 146172.78659401942 -64091.88573267098
168996.87236968358 145569.9953428476 -62462.44027570808
171643.2245221309 144792.9116578574 -61666.33252922566
168571.5014521119 148720.55424965298 -67194.14609341875
171020.5404891781 147744.23732125628 -66553.47509485713
168619.0535151099 147041.8790683172 -64891.5744018971
175676.5507179259 144790.40774344158 -67098.11053887176
174088.7281765347 145621.2468088393 -63036.42619274007
176550.8907879546 145521.08241197182 -62225.72702342806
173367.13256164172 148899.01187899322 -67936.12928852979
176100.5653633013 148323.06240278148 -66896.93944513127
173724.60610907662 147046.197250175 -65628.97997603008
176420.86417508262 146829.8276159942 -64591.52079692242
170483.4793594452 152172.5644443267 -74657.93821625596
170997.4146768688 156887.50616836981 -74071.18370856128
169853.0288415284 163776.07150115012 -74874.1669516129
170712.5564123041 161028.4897605791 -74659.56798364248
169172.5250696367 158866.70378912418 -74415.86805925862
171697.9033881336 158984.0313788412 -74483.71840535368
175034.3635216615 152084.737656818 -74819.79233006512
173929.4582920994 157330.5485689285 -74324.00461367145
172786.6941611539 162988.9401395312 -74861.50158486194
175664.1639179582 162187.9556541237 -74715.65685700491
173578.1233077679 160134.83859826328 -74587.85732837397
176381.8592709427 159310.4650696334 -74447.84400605962
172737.24108743118 153047.2635711546 -72011.1420553239
169972.39708180272 151843.27130005078 -71011.42931674265
172610.6663136335 155302.5216058206 -73262.5269329088
170483.9409067609 154565.5943752811 -72749.70477774371
177592.00136560138 154013.9367172044 -72094.69227318776
175381.854014329 152178.8244861599 -71398.18598805604
176995.9405275807 156575.47744356192 -73544.08439395139
174892.8544024333 154720.8739419629 -72832.85094162602
179865.2355627557 140005.3723785681 -71993.23305285952
178125.4025106159 137761.02978006328 -70823.41405300648
178290.72783674867 143509.2250146306 -76158.51054972333
180449.2798443519 143857.9421851931 -75352.05363875184
179117.4717845828 141633.7961639828 -74249.3857647412
182582.2765846742 140845.6574454861 -70890.1079965822
181495.56878448892 142245.9807540999 -73169.45172005532
183961.9981814499 143126.9408576556 -72201.90528462459
178799.508422083 136016.12071483108 -68494.68375109686
181094.3756182213 138308.57797179208 -69309.10843533117
179325.3497014819 134498.758355369 -65975.75414779587
178495.8302616632 143868.8833062722 -69546.66961656732
180542.8667255859 141118.21995584338 -68848.18725296584
183845.22346338158 139494.38249206988 -68522.11714600337
181255.8970054786 136319.3644172576 -66777.04807202119
183003.79026232922 137818.7181198581 -67223.24832368699
182663.2641513804 143835.05330925438 -69236.60043221596
183234.6324468033 141455.3565044966 -66812.77318932726
179590.7255361903 147660.2525996154 -78492.56555249802
179355.1731521814 145360.3779712892 -76972.24798599698
181279.08639901862 146150.4655661919 -76552.52821591096
178520.3420058145 150159.1916890334 -80444.94529606744
180212.2124185504 150741.1066378055 -75620.84607442367
183732.9382453647 146877.3371071071 -75732.43296027053
182251.88671357342 147550.21841051188 -73624.40538005669
182853.76082476508 144499.2400117984 -74478.7251087335
181796.9000965758 150382.464542231 -79189.14936152213
181969.7827161009 148156.6759942763 -77581.574311423
184139.2634870487 149251.5763324053 -77097.64057461542
180481.87271082192 144372.56823189408 -71940.40834759573
179629.73069147547 146752.9288641724 -68543.49954658086
178943.1273543467 147589.9061708258 -72355.13127998305
178436.7740605423 149843.32004352272 -67952.13681420317
178788.3195073312 148079.6925661925 -65736.61476786308
182817.5524727996 147442.8826800093 -70111.43885926821
180904.7882367484 144400.59070578308 -66338.42626012916
183078.3173679959 146859.80012508552 -66469.77813607888
181759.2099128005 150645.54929241812 -71783.49603479537
181083.01867142462 149654.56992606702 -66629.1393213702
185176.38126335898 141748.86510047448 -69829.22546419865
185345.6034848704 145448.4450424523 -73443.48366079896
186560.0421730078 144083.0767405327 -71079.91316774508
189112.7905993853 145106.55077372308 -69911.99796752367
187878.9347915092 146557.97054803488 -72378.38009401553
186362.6498540244 140439.1142439534 -67425.5815568868
185038.1823798364 138527.1896190065 -66114.15714421362
187775.2363458988 142729.0455552932 -68716.81911103513
185206.7856780987 143846.51284415618 -66788.78082519746
190293.36744423019 143779.7768557193 -67508.98622362013
188842.1853058059 141569.8662953289 -66196.98579156063
191616.1957521285 146185.5426060817 -68688.38122938524
192649.1509768533 144999.0685828576 -66173.0969193095
186291.2535781651 147884.42764290472 -74939.40033981336
184989.8535561393 150199.7254258095 -73708.63313400754
186844.20839509703 150417.6747050392 -76213.66701463424
185465.796981668 149658.53735275578 -70700.6284290837
190398.8100656093 147558.672657109 -71053.42887823434
189114.6885307786 149260.573776617 -73772.15559271112
191659.11419422552 150060.2457160175 -72036.74987215763
186521.1940722611 146903.2106559011 -69208.1757029071
187717.1160561004 147411.44410090472 -66058.30075012233
187803.8875589209 150899.75046561752 -68332.38984998893
185049.20791514288 149302.5395221853 -67509.24405911323
190383.4780024208 148819.6016473698 -67894.74806800984
192833.54467498529 148703.3116683437 -69763.1859162661
193989.8139930096 147363.7528911118 -67377.11570151895
196176.0613145362 148691.7663728415 -65831.74243380247
195198.4606786437 149905.71564843968 -68381.64256764748
193612.9518164073 150793.1563420172 -66485.58924438384
179793.4490131503 133086.3714978324 -63407.239778691175
181711.8054168601 134970.5623498463 -64309.163353572985
182248.4027630011 133643.4921514607 -61791.91552564341
179788.2461563923 140352.873084629 -65233.18264459234
179693.4354719976 137692.8754556587 -62760.49327143134
183501.46689498832 136719.9183255642 -65081.53812858544
184113.0546867134 135516.61999338362 -62659.87393993989
185827.5651286385 137455.840863222 -63687.40089870435
187369.9462664787 139443.6705443935 -64872.32751555913
182863.0801085868 139361.3183648979 -63572.32250346543
178243.29181242207 129710.4931980316 -59797.24269256941
180260.7127589797 131669.81303255988 -60820.92149986436
180576.0971515433 130458.52642518091 -58133.60999943275
178597.9237416922 134726.0862661245 -60450.71207100522
181743.0973918189 136164.6312318882 -61061.29816649999
181382.4007351139 139214.24708579722 -59345.32334051372
184691.11841604952 134247.9269088791 -60175.481731164014
182649.7783181617 132310.9206790913 -59147.63101158472
186985.435654862 135048.4395832755 -58440.07307699597
186550.84789924958 136239.06461028222 -61118.007049403095
184977.8177931999 138037.7895856473 -60129.01719702708
177984.6155413248 144212.2820029338 -64797.23354149775
182232.6735018055 144373.75307709642 -63309.810113104046
178881.6477403104 146775.55953349848 -63397.08873291513
181243.56744252838 148174.5202473573 -64267.94062396624
181258.7089725016 146783.09864682172 -61860.43928943023
185907.8508210622 141544.49251269942 -64252.074783166
185655.584371141 146301.1559039976 -63481.49216873355
183538.135872002 149757.1876249527 -64917.11545581817
183587.1417119697 148317.1903489104 -62489.27508188929
185738.7354305322 150109.3794647096 -63033.46098099142
180681.08086851792 142274.7631359734 -60826.66566851508
179294.5310649244 141268.7867091433 -57606.03680127486
178839.7826257443 145410.69121949188 -61025.2110255656
178603.5833965165 144036.56807987532 -58494.9219517746
181116.5418458805 145255.9761488954 -59344.300349932564
184883.8053464011 142081.93214895518 -60956.63226225958
183238.10406501612 141840.9488042808 -57587.39463961246
187071.6831832089 143676.48999608762 -57885.33542723976
183568.5502705461 146819.7279219793 -60001.03372507557
185844.0152500405 148623.164136471 -60614.722983547676
185726.2216652366 147144.1691430908 -57972.754535504086
189766.30656597088 140492.1645758119 -63604.29838509463
188263.2262043648 138292.0284585834 -62205.67300623388
188404.86335297188 144400.95514817632 -64787.69697768459
188161.63211127138 144734.0920243537 -61125.918775245365
191234.50290357808 142697.8172790184 -64887.206227162664
192170.0921558088 141622.9591226404 -62272.74279281582
193596.1342055339 143923.15792623092 -63526.24430942545
194553.4043312403 142954.8156598726 -61008.300023536445
188912.3317567684 137063.8389639714 -59576.05769830874
191038.8329897084 139333.85103396152 -60472.49389960628
191104.0345297086 137898.6968723678 -57678.39042575444
188144.56767086362 140586.0831039806 -59578.96863544712
191438.2467582605 142951.9190253403 -58933.544812421285
193553.0054300435 141041.47642606008 -59675.24335611282
192776.9588613546 139507.8159406338 -57999.6395180631
193520.7185429461 144931.7496055762 -60149.10588405438
196821.0090142208 144301.3862070853 -59567.57825394038
195458.3575602781 142446.4554355753 -58800.90800108227
191330.006544195 146731.8086450022 -65230.775353221434
191684.75893533241 146108.0360544754 -62281.193741932155
190811.21200627688 150337.2983114073 -64072.682259580986
188776.6295911372 148015.52934184342 -62233.61130048479
194892.3392801334 146234.4531705505 -64741.61121822101
195889.794530017 145217.44721267978 -62112.92713352627
197115.2683462245 147630.6266726323 -63290.336511859816
194414.3428461368 148521.50533467619 -63352.14769144057
198247.7642584063 150078.2885071089 -64215.149052626286
199196.2181526832 149006.5640999315 -61712.27407049733
193200.8961097441 147683.0352138909 -60300.059313082005
190246.7052546417 146905.6715868352 -58801.8165982596
187926.9140894133 150641.2950771419 -61079.337421010154
192072.4801031783 150652.536407008 -61015.999861753866
187909.1008649694 149027.2146429139 -58514.50583885893
198102.16755149158 146578.95894477202 -60676.86939709021
198840.19697086178 145698.3486331307 -57932.20146364619
201156.024231631 150487.3296267484 -60017.03205011948
196031.1636326208 148585.03498976902 -59209.85801403391
200046.8069312015 148032.55472682742 -59097.0225275917
179070.0897332875 155100.25088930168 -82084.56025107592
180309.72753606408 152745.8044851054 -80878.6826132044
181700.4227320071 155162.6787993371 -81260.0479786349
179978.3361088548 155178.1826514395 -77720.39778518319
177976.2501349104 157623.001584816 -83022.50736169651
180796.5322725041 157563.2836393207 -82325.96812006731
183182.3120711341 153120.3414660293 -80098.38005518456
185588.502522789 154275.5264431668 -79311.36600384364
183198.4934454064 154280.52597237122 -77486.25727768108
184821.4221413349 151694.73623346078 -78258.08447379555
183403.6101843445 157504.5405561663 -81370.1324202668
183825.64934872268 155306.5367879026 -80579.02535696351
186099.2963923424 157343.08625395078 -80309.94562064421
180332.3754353509 153510.7998094488 -71099.10642385566
178072.5689945041 151761.49960976248 -70203.79836254109
177876.9794689368 153981.1131721968 -75080.12125004648
181864.9728074439 153831.23124123382 -74134.58604467564
179745.30714438212 156001.49577065711 -72617.51796524496
184979.7250810832 153962.2736872103 -74054.24446996437
182394.3760331111 155493.6044218704 -71561.91464852195
185003.8905495107 157015.9651912558 -76774.48286910288
183887.7707356099 157339.7751619971 -71789.55769319355
185068.1200219771 156013.18617308498 -70120.86490985884
179639.545560139 160113.93579027252 -83054.15714276917
179161.9709896337 161232.4507165398 -79856.3958195035
180219.5032159482 157835.87812950008 -79915.3560107853
178320.8358384986 162812.7435380182 -83254.4385430607
181252.8280655283 162588.283186547 -83028.94047230642
181516.2375089018 163614.9449459652 -80293.47978006299
182499.0771758071 159989.9242808411 -82342.14104938685
185068.5174360891 159937.5386655911 -81292.38010971974
182234.2448050213 160762.17464526978 -77874.4961345687
184064.6807334922 162520.7882671582 -82111.7676268942
184756.95048120138 160918.0937060844 -79210.92606153092
181745.1007675825 158090.9252491146 -76214.49294981615
179303.1419370727 158647.9066869668 -73984.10979343075
181878.8808759996 158074.0455960315 -72845.7792403118
178623.99022638932 161462.88321219 -74505.98724819155
180486.65187909448 163572.8371999403 -74510.39485265223
181892.2748875421 160905.9277340893 -73953.86097951453
186296.5631911257 160634.7153475741 -76360.79210252895
184035.8490601116 159894.7017937644 -72697.57528757009
185886.22212299448 158603.987738473 -71458.98601847478
184148.58252377532 163014.57235403298 -73599.27790919793
186451.903177588 161477.5126397571 -72113.47795739342
187341.103687702 153031.1959948187 -77447.80903614381
189205.6635746347 151736.9256650334 -75478.34234052761
187981.6769727695 155779.0993272322 -78470.08430901833
189737.1262910772 154477.6556434249 -76574.21705756165
187083.8931992077 155811.28465712813 -73920.0046381609
191933.47340985038 156054.5580992116 -75659.30970841987
191371.7659633175 153374.1454498766 -74863.7139122102
190201.5604647672 157303.4643013962 -77473.87576074894
194175.0336705664 157715.262557235 -74328.12923831899
190875.5973283608 151366.4001011623 -73888.19407721242
187731.9319693972 153362.01765077602 -71784.32615502972
190291.6971854734 152221.1513020102 -70253.973677969
190216.24002938942 157242.66585110352 -73133.87174993118
191777.9102541014 155492.4771318729 -70326.47742079162
192726.5002368072 152505.0497069575 -72874.28043363897
193951.6826634809 151297.15283676732 -70714.05782861395
193582.8083353262 155115.95074101147 -73682.91083228354
194909.2190108744 153942.8986446845 -71495.20065462931
195646.2398554509 156562.1600389238 -72056.89027063531
187162.9902340696 159940.1404497174 -80428.1016440809
188605.852500819 158664.1874831259 -79203.62186615077
188106.2410966641 158626.51024384 -75093.55858400607
186692.05272990602 162354.2658343703 -80939.05321626044
188954.133395637 161508.74383993662 -79698.24950463018
188581.5694186772 163351.2681124741 -77116.62653029388
190579.23657606842 160209.1155571957 -78064.70304409186
192443.52807949518 158913.8031054779 -76210.18218904546
190630.6711768585 163136.7885614273 -78513.06813153198
192582.7590097625 161832.1889805732 -76666.11197690746
194543.6208217394 163497.02561376218 -75146.51648359126
192905.75350188292 158607.181877531 -70643.38129755048
188170.0125516866 160112.8441382911 -70388.97365401922
190166.417874406 161174.9980560649 -73959.58771202283
192565.9230300794 162927.4225015878 -72701.45429357771
188738.5769980591 162894.55973096052 -71016.10544896038
194541.00734016628 160580.2908350472 -74805.32498185642
196062.2826658887 159312.3538905198 -72585.04782976305
197481.97472853452 158120.48616275872 -70447.06663628398
196213.5332097252 162226.07921000512 -73033.73923478142
194747.2772210658 162663.90316996482 -70162.98695527096
197749.6406908164 161008.97350473018 -70856.20834094532
180712.56946912562 151551.9007617222 -68837.04358493324
183265.9276651247 151522.2843150025 -67300.60551174465
185673.1241231397 151701.2423417654 -65552.54730162548
182864.473795669 153499.86675028442 -69511.68309815641
185320.1856084006 153621.88021699298 -67803.97192302477
187694.27787845 153866.80702652442 -66038.27181311599
191107.2861005404 152388.2782855021 -67026.54160994902
192243.1118399397 153386.1463991214 -64477.792982427774
187438.5268114191 155963.6542987684 -68042.79947518621
194126.0347210764 155075.70829298501 -67306.44518096923
187799.14017505202 152217.3491156959 -63552.34888724384
189950.13203559528 151159.9887880207 -58981.00244603639
189714.7607072411 154456.54938025522 -63910.64961521638
189857.4229109245 152782.75221509283 -61448.35658648215
194566.7592654737 151391.4269246892 -63226.52159129187
191850.4339392946 153421.5542926451 -59325.63926484966
194710.97388347972 152638.926620047 -59722.04274283471
191674.7666062405 155124.04563372242 -61766.28551178975
193567.9239401156 155844.9016321709 -59579.270436235616
187286.9827936787 157828.20646968592 -69657.54384210068
189570.532389026 156145.3692482889 -66266.63186217796
190290.4141046076 161558.0476049592 -68851.15547719665
189415.60854454388 158532.53914516422 -68140.27420704247
195191.1957671924 159890.3386185905 -68077.25392460926
191040.1955292796 158022.26536308601 -66183.77698124036
191700.56931530352 160328.9388105346 -66807.29797988213
192138.278328673 163165.8266916214 -67178.18033554046
191481.0805327805 156840.806501384 -64195.46322591428
193252.7597860887 157554.4435664007 -62003.430165812875
193415.2605005723 161787.0624616704 -64966.20834462425
192733.3312641832 159160.28471996632 -64432.62865400561
194472.8318885706 160497.12063340188 -62274.25562859483
194884.0834600476 158303.3366558761 -59841.52649736549
194793.4547731937 163559.26739505652 -62898.81124473864
196200.7162043613 152590.1548080762 -69230.5795335487
197327.0483016277 151285.501687948 -66801.9850661863
195876.4485265359 154056.63570027341 -64288.28876936649
196973.23104121198 155331.6997394347 -69917.09469026263
196438.2596815546 157496.7774516984 -64775.93354558515
198279.98819880572 154016.3726159223 -67624.40362366507
199252.8573865933 152763.7882020322 -65058.15190820273
198920.6195258864 156850.1953965493 -68208.84697653785
200014.0137256407 155570.0036563421 -65750.9284381826
199002.5813596302 156246.0171871114 -63448.796034745275
201609.06464197338 157197.638452725 -63816.654762736915
197319.6857350763 151094.2706522684 -61817.37640098514
200203.15770134912 151555.945183639 -62518.302117647436
199021.1879978751 151380.03843330612 -59105.90607458193
197195.7848248083 154948.82995773948 -60978.194066421696
199895.9880662849 157108.6654663905 -60203.61147107815
199444.5514382371 154197.39103365171 -57526.40814841533
202015.9495030139 153118.0836505527 -60723.55582688338
202720.1732513418 151978.7905739721 -58137.153533887475
201034.8010266436 154322.6118106682 -63233.62750721114
202673.1638961579 155936.4783647733 -61323.999395129686
203562.1411899789 154719.3958503143 -58742.04369326681
199276.591966711 159738.91162709252 -68634.32413065028
198447.2764910591 159375.93576926322 -62708.60538196504
199405.5480436859 162665.3880244518 -68977.93536339933
197045.3546032106 161005.9301194467 -65184.42743821227
200531.4909126537 158500.2334351945 -66263.37118804178
201936.7377606622 160136.61415031852 -64278.08798535929
200781.286382251 161426.88236231232 -66681.38569485897
202076.10131674822 163097.3907293907 -64627.06411239815
203286.3140275328 161821.8942922544 -62214.37210719006
195863.8973794585 160581.20802838702 -59750.2235092529
196284.2361602443 159414.6034395925 -57584.94613306241
200445.00582081242 159985.4072042757 -58559.0358589124
195874.0982694106 162931.6243933767 -60686.21633955743
199495.4599959384 162601.0475398372 -61487.92188138284
196997.5920845215 162271.9660831913 -57876.961907770645
203085.8899528796 158856.25270748942 -61815.617899803474
204115.39697364738 157603.3093559113 -59304.17169963429
204432.02000314038 160542.7808884233 -59746.75780803668
204565.3300179214 163508.9493065208 -60093.51768883704
201760.7113388764 162524.41801476892 -57933.747131224336
205392.7554784873 162195.0350696604 -57617.65693112091
160607.83960931722 117918.39587578979 -56267.91161531455
163121.5466420755 118274.4991490882 -54854.974031131904
160927.0408367489 116594.4426391481 -53677.69945285969
163457.6237892418 117020.9195971044 -52147.490210795455
161029.6871016205 122091.5216258325 -55200.92138919996
162787.8521940196 119556.61948302599 -57391.24138690593
161847.6323502225 121491.48110521141 -52194.42076449762
165257.1971037081 120018.76659291069 -55962.65683110525
165603.8068307942 118770.1691401852 -53270.498079888275
168142.6453215411 119497.92423962541 -51682.915177995485
167412.0522519874 121768.4509876205 -57103.50153427768
167716.06168991321 120580.19298311019 -54360.93182009837
166132.27280065458 121847.3543964157 -51208.946879642484
161281.6549637703 115328.8857916232 -50994.41486874126
163707.8779428287 116116.5156436958 -49614.019262035494
161572.3078936096 114439.86308764509 -48314.656077570166
163920.7451528176 115466.78302899051 -47534.785683272115
161458.50721771191 119841.2974041823 -49166.825555279574
160799.6673649745 118361.66220227309 -46627.860667368725
162089.6924864414 121031.8162734293 -46501.73399982947
165885.1907088067 116950.2760761517 -48236.37584391416
165935.4728251071 117836.5135908046 -50719.26801220224
165514.30443641188 115950.1574754083 -45982.436153924486
167933.90296586283 117663.9525071539 -46467.60687829071
168369.949729879 118772.0575693189 -49009.30067295155
164724.6597572103 119518.2469903488 -47818.871869173076
168600.3182246889 122222.00962677719 -47618.48733522477
162449.4570131794 124307.9561788119 -56178.96648077732
162586.3839123134 123447.6046610409 -53769.39365171906
162953.2217076019 125941.725613263 -53965.58302755759
161693.2696587728 129687.5755267614 -57022.09567093205
163120.7321294351 127156.1233891047 -56675.465322915814
161783.2228580252 128331.2934942688 -54438.01271259196
165091.25665460748 123307.0070554345 -55898.932190757354
168391.9410079182 125587.2922938278 -56967.70965637324
166994.8587294534 124284.2611447619 -53509.590440120446
166239.5998921673 129471.2402053091 -56613.525049993885
165417.85963906592 127090.21586772469 -54948.455379546205
168689.39981893438 127920.3753994938 -53600.728303131094
162851.5835525916 124197.1761236049 -51447.026533424956
161782.5243381952 124017.0011770422 -46604.77014651097
162550.91828051952 122568.8753247819 -48998.31889660949
161807.052358249 126893.00304694039 -51720.38447393107
161793.8710455143 125582.9292943126 -49116.654032622864
164169.5132312102 128067.06522959041 -48285.66107972793
165204.9998640485 126224.4102615123 -51268.549179111535
168005.0128787952 125507.70617111429 -50152.71750478211
165136.6091644236 124007.5828812866 -47741.41007659705
165028.9925763569 129352.376841799 -52454.34468595922
167731.8495673292 128839.9360101729 -50281.75733560569
168519.2364176268 126896.88983226969 -47504.16288757472
169837.9997788398 122372.7512873416 -55461.36991171018
170370.9909219093 121327.18485555991 -52578.03965362494
172010.5658856284 124218.2390832543 -56489.92393086188
170424.4662760918 125122.8098372274 -53773.52552821629
172560.45721548842 122976.7482163747 -53147.59431893044
174528.4394252311 124061.688885647 -52765.93899007825
174311.0464698855 124907.9473483888 -54871.24132963663
176311.4926222153 125439.10232404071 -53274.80656323331
170726.7921026656 120520.605649314 -49798.45299509384
170332.2364528186 119412.4499508574 -47086.53517722688
172686.978603844 121112.27897251671 -47561.65843227702
170809.7380495547 123834.7011967211 -50736.148794177316
173143.560929755 122333.4638083465 -50601.89067916724
171712.1880427578 125046.3634494372 -47921.22312078393
175666.3864429211 124006.4421830287 -50763.430083206375
175097.6307461377 122814.8144238501 -48033.68747969856
177504.2838990069 124507.26274140661 -48510.74805906006
179420.7094216833 125056.2710901375 -46268.11575673244
172093.73982626433 127505.8927637862 -55776.080257468064
176386.8696232773 126775.970300135 -56052.70665312736
173059.9552837702 126623.5289848311 -52979.887017338035
175802.7768019065 129072.8708313288 -55617.432526024895
174505.961388754 129471.05026630101 -52819.17926647489
178788.6030348402 127312.6320223191 -53871.57077621562
181291.7007764848 128346.5636431819 -52590.360916433936
178498.36287082412 128590.13692356709 -57029.304807866436
180848.90680441252 129336.5030507911 -55341.42324272005
170600.5412003447 127138.8195585636 -50575.72711749622
174493.4043106895 125919.0333351774 -49877.2562428547
177648.82406986068 127375.0088108329 -46500.045370767184
177064.96154943472 128576.47996144519 -50151.00678215937
172902.27742638232 128824.2257132488 -48942.288997275486
178021.51877241512 125658.1713683181 -51217.804373431376
180044.8394043547 126980.5990080514 -51250.49523991525
179932.6133909631 126208.9979422036 -48958.512262495606
181832.1306215093 126758.5099671885 -46740.64638451371
183160.52263886872 129110.3775015341 -51480.918457479616
182141.6697950256 127893.0268957592 -49761.16630172936
160496.06315483773 112392.9033589953 -44632.54006950918
162876.68402122072 114160.3281619388 -45692.555853997925
162500.93855702342 112967.50589717389 -42876.102362669946
164435.066664015 113708.7359719027 -40710.86692882606
161524.21026192748 119533.5518751198 -44054.21653970411
164502.30060644692 117915.3433918668 -44887.825840036545
160921.7137301296 118020.2970038995 -41498.49740548007
164966.3036925788 114734.1149465977 -43472.78139754298
167399.3678061431 116485.3733941664 -43912.06484422743
166817.9196732738 115451.5808055832 -41177.0662434155
169822.9682366573 118244.3277849997 -44391.853523141355
164949.7072351346 118443.8097772271 -41212.733390167916
169212.1261607044 117178.24858283259 -41646.39497690762
168166.46686202422 119691.57942939679 -42117.8374775072
162008.8406223173 112031.2008835125 -40230.40083811577
161431.3860530938 110990.1317548469 -37489.319562949604
163830.3250393504 112708.937473614 -37960.06780627704
161029.40843821678 119436.6519794458 -38892.339003524154
163376.520252745 116302.04439915261 -38830.66031132709
160532.71601490912 118034.4467892611 -36585.80917063192
163326.0619435116 115919.8553205911 -35391.51248628973
166195.52665176181 114476.8706635798 -38420.978698818
168575.961138997 116223.41688157471 -38886.338181396095
165573.36277821902 113501.4516484389 -35665.3831729263
167944.0227331114 115261.25443964181 -36131.52895846412
168261.5927469645 119682.18599117419 -38112.17393944541
165097.6757260583 118669.3664827861 -36332.30194681578
161623.01878506178 122479.6719056567 -43953.50314419015
163933.8924460566 124474.44443807029 -42717.59831364139
160477.1124305384 123772.4993187667 -41604.27956148487
161362.5869634232 120954.46499873439 -41420.97222736568
164073.0742082636 127021.31778056329 -44960.77116009012
161023.741498836 127873.86859619021 -42780.97673511096
163802.3321627423 127866.4151146895 -40696.81923063998
169437.34425774202 120988.6039011551 -44896.1219872123
165590.559329766 121352.25871126041 -44192.17274110906
168351.7395809396 124786.28369156 -44183.54992340679
167972.0340496962 128482.1587889659 -42023.765036855424
160525.0005497198 122360.94826014801 -38945.38819380349
163660.9597815329 121777.5477158161 -39607.896129256165
160514.9251531374 120899.94686725701 -36361.81801280194
163867.2987717073 123223.3935348994 -36539.3260546673
162054.8066021434 125392.07843263139 -39397.28658077533
161270.62885028438 127458.03182790191 -36422.82952916558
167477.3810772759 122424.9549223067 -40288.60671996127
167945.14845441838 123845.5582389957 -36874.96103726575
166169.7767464167 125579.1540774037 -39660.194606158584
165105.5751538633 127352.0681110587 -36813.10549572387
169047.3809244197 127598.320620478 -37516.27663082607
172180.0120316463 119957.9792503513 -44851.7492409566
171643.5825872095 118890.96562313421 -42140.266590817366
174064.93684225838 120563.7180119369 -42581.98303419275
171774.81510298428 122928.8833783662 -45331.29353105925
170469.7231276199 122210.2902439151 -42515.78490160481
174589.05895016182 121663.2067067658 -45322.99817066814
176507.3751958409 122221.0912695362 -43013.36808285758
177001.0078924041 123362.014550711 -45792.96409914307
178934.9779679458 123901.325012491 -43498.628627473205
178270.58435743002 122955.00729681809 -40795.93364237678
170991.9940493787 117948.2568668929 -39377.21223280979
173389.8671582384 119639.4428777334 -39831.97433886068
170330.3683307276 117000.8426085398 -36594.614359761006
172728.9593551367 118721.4161257947 -37065.175192085226
170725.9512351522 120615.2980444968 -40193.889304002856
173634.67988003462 122866.6008112411 -40065.600980292154
171390.0384982731 122039.6359253191 -37844.32714589151
174152.26451167188 122585.9746019528 -35605.23240460008
175824.92120453922 121305.3627796793 -40312.480428266
175164.5280854812 120386.752254611 -37545.54246394956
177606.6330230731 122041.86054564541 -38027.88060838701
180062.1687700359 123676.135428125 -38513.962665694235
179400.7099215097 122760.59712026689 -35753.22584046152
174575.0398558341 124845.43464871921 -45814.0506790565
173073.7156963043 125186.2248292118 -42483.15208457569
176253.15548266392 125266.76376538459 -42813.56718274727
174580.1390437792 128212.39469144629 -45841.25151749466
170993.3863310515 127911.66389155209 -44852.71330317132
181326.00359714642 125602.8855290608 -44030.50065314281
180737.688288928 124618.2661067218 -41302.93574129448
183147.58688537258 126256.0615029494 -41790.001371746665
180657.3259031694 128235.8153662223 -44088.75847847794
178022.203239713 127728.72020047311 -42522.20551993546
180668.8114051123 129166.9712689484 -41012.34931077916
170187.4950977652 124895.3834176298 -40058.06012919825
173387.7732214554 125404.5967359453 -37770.32390973229
170947.809502738 124325.0387193073 -35444.06380802033
172159.6757857492 128290.6677959877 -39436.84015358681
175395.3310691903 129838.7684389458 -40006.40111243543
174902.0291607705 128734.7805333282 -36610.32308707617
176959.32724303383 125725.906168275 -39710.350842766
182508.76809455012 125336.85702738189 -39012.31748049979
177713.50191800168 125694.18005270499 -36563.16027580377
181849.1229546997 124404.7835796924 -36230.43241598599
178288.800245909 129631.6439447343 -38633.83793187252
183348.1299319252 129133.8031352628 -38813.75143495521
180307.5150434118 126853.4750394212 -38200.427796522534
164751.3523702946 133272.5632241989 -57092.90042968866
161264.79688460278 133154.7809088914 -54147.90826047675
163069.9461206157 130904.85387337882 -54914.92121841218
163142.9768999209 136300.0830354138 -55415.854578563616
166116.1520085954 133701.4503453341 -54431.3910413222
168891.6940699264 133297.6767890478 -56682.32841281209
171132.44920981448 131264.85454471988 -55265.47972282569
169699.2817264641 134455.8125734511 -53527.18219710648
166604.6015493761 135600.0530358654 -57207.5516009742
169247.27739494428 136686.8591620013 -55497.85522236505
166532.3128555732 137047.61196228798 -53540.183576785355
160413.67856734042 132872.55719271392 -50248.863100070914
162431.4348875162 130257.2106242612 -50664.159595375255
163433.3144894716 133135.30871190698 -47934.73672172356
164358.72958511938 134069.8086619717 -51510.728344166
161568.1526736749 137677.1180611316 -49503.99937240913
168097.1041843224 131676.2373611106 -52455.81870362155
171306.363702577 130494.2487381602 -51939.1399277775
166616.94783856272 131689.87256798538 -49373.99977995238
170212.2805985496 130594.8485338346 -48627.04963126163
168373.4661788205 135852.0175200734 -50687.220565430114
170017.0806851126 133598.7414695403 -49639.08264214665
169059.0550349721 136926.32170647391 -47487.63310569368
162509.71671716392 140732.7485070868 -56304.511732801286
165494.2888283624 142379.3272126748 -53245.133404309396
162444.3215157703 145147.25285755692 -56382.778807702874
164973.92763977608 143642.98961986759 -55891.356916199904
160498.8364189406 145491.70905708201 -54152.88236528882
162914.56783628662 143788.6813840099 -53740.976792722424
166882.1730413608 139762.76539821087 -56528.97771100621
168178.4710017307 141314.1771100747 -52730.607118488035
169733.9089781888 142857.47207460902 -57350.539669566846
167601.53967212388 142485.79282812533 -55284.66392543332
170267.8538968211 141730.0896742332 -54700.03823368438
161377.914631484 140641.3110544662 -52308.35589831158
164118.87959490222 139009.300354285 -52544.81396453119
164043.6157533165 141389.93066056058 -48406.23932367446
160941.1072974852 144097.0745044961 -51548.688867884775
163431.1873003914 142484.1471933086 -51121.40864635593
161514.3567461077 142903.5131575925 -48852.45436116898
169426.66074124948 138200.9550583821 -52559.63627191393
165939.1182733997 137938.29617153908 -50024.61978965174
171659.10611736978 139711.8581981849 -49293.1633670741
166106.1391104213 141176.33608061352 -50647.15128732038
170965.4826984872 140604.40746514022 -52041.080874044266
166722.576514647 140196.3027645344 -47870.474185922394
