864
220290.5630016672 143192.93863426178 -44663.02320736135
216758.1751974323 137252.5847577442 -40896.59565675839
216044.7343638156 135384.00980489832 -38689.0803369394
217263.19195456302 143195.7799795233 -42347.139898550144
215830.49373740182 141193.19760165102 -40669.25019290317
218181.9072444209 142648.20918501623 -39558.296534396046
219754.04273776998 141058.787285778 -42648.11307673271
219066.3820903485 139142.95127914302 -40567.19934768021
221794.37653776052 143049.4611002806 -42127.88013867592
221260.10014085198 141099.6679906034 -39981.357655367196
215425.4761415777 144607.3819543442 -47426.80309550031
216213.3545139349 143850.5795011658 -45028.60872233023
217651.41742132348 145914.70237811792 -46602.81724745066
220761.4135514451 145372.3075581797 -46733.920350118584
219780.6360899498 147499.3816058832 -45474.75737738512
222980.0162320632 147621.2266077624 -46019.50779428319
220888.6621597739 149754.1111990444 -47054.78353558644
222713.2636409594 151692.0906459071 -45738.43135569889
218557.32952977958 145314.68264699832 -43944.8210817506
219487.6494963293 144779.93588790658 -41175.84127556838
220679.4816801644 147006.2779031874 -42739.13694259101
222177.3490184153 145064.5990562808 -44239.170428285004
221511.3697367504 146556.6113876242 -39923.26927237872
221751.8090003997 149286.44415876182 -44203.460130949505
222554.084326077 148898.6813426272 -41424.59421130011
223916.0544346571 146678.9856308128 -43209.029929370314
223226.31946023612 144808.97867720888 -41950.72290073651
224396.3253955655 150028.1525884505 -46350.61837977331
223458.5735840897 151321.08144664927 -42887.10418690581
224938.19712913048 149217.0006718789 -44275.95135857601
225682.924026149 151762.17124390812 -45720.48111660118
226434.552501204 151048.8574966299 -43150.56312222229
225547.17690334472 148326.49536900708 -41710.503572418835
223328.3621786264 143399.0540843861 -39500.19524552502
224669.7169705718 146033.2649448837 -40552.08374204047
224867.3896103783 153491.85460323052 -41427.75458483542
224112.0118227231 150993.7986060548 -40007.41247339405
226776.2125359374 150161.69642726332 -40810.94329141581
226399.4358062112 148092.9785598548 -38861.45119330762
227887.7546443442 153133.5615057704 -41335.08050690033
227756.31155459498 151215.73145667382 -38925.77344481258
223537.9411462154 154154.59291162257 -47179.71646487155
224219.0293222838 153856.25232051278 -44357.31129485619
224835.20466755622 156372.434470117 -45690.0213634596
225289.3193873122 158948.05904049822 -47069.946089174424
225821.7305571207 158667.0743628262 -44175.275236523434
226269.31767957588 154251.986176952 -47187.457785802275
227158.88158737498 153844.00723378742 -44492.442237961906
227703.04930152118 156451.240582734 -45769.892966962696
228101.4862587147 158950.1959614953 -47118.93517297911
228896.5992708905 158737.1346603097 -44269.008052958445
225415.17356538278 156010.5792281781 -42835.9823471453
225849.99676582648 155835.3412137533 -39856.7047270718
226277.54701024632 158449.3839743707 -41173.441980745854
226798.74160366692 160918.0700565845 -39571.77770033752
228544.4081969717 156162.3589854612 -42945.7205888307
228666.79248696953 153636.913137042 -38755.210779815105
229260.1256331362 156295.9653469992 -39586.42172250438
229510.7369707108 158500.9809309159 -41391.94709463818
229896.8151852609 158773.4107775258 -39304.18310997116
230225.6261937058 160912.5686245459 -39839.315858606686
217048.6872080413 134633.34033819812 -36005.08104258907
218478.9623790724 137069.3543617879 -38060.239232773005
215372.8778716237 138633.3351751814 -36207.27877905057
220707.73222799491 138055.62758808862 -36055.049146454374
219215.383311282 136154.36345018572 -35326.55389199972
220425.0861202238 139165.20348198278 -38378.39026700736
222611.8223613963 139066.2013830403 -33971.70581960322
216668.1504932063 132775.0185253956 -33207.64177111536
216135.04173167562 131101.2966609064 -30787.03796276981
218435.9865073965 133009.03953634118 -30892.01021013573
216370.71216900842 137970.2505241854 -33479.058573355636
218712.3495571599 139478.0200505937 -32389.56503245394
217291.5645850297 137354.9253532139 -30778.14855983613
218969.89557449069 134695.7055514115 -33167.40241123298
220797.8134297714 135142.388679614 -30642.94493236058
220969.4687913106 136818.344664468 -33456.20015678168
222827.9981786972 137808.2585942619 -31274.48054854695
216821.6889105831 140586.97445396258 -37909.29130959839
219086.4457884859 142137.6397782352 -36776.349434471194
220348.1140100869 144311.97035375042 -38356.70526165191
222479.8966634697 140693.77654279198 -36936.43276945997
221174.70830261518 143859.5683630192 -35553.30573869011
223233.8534293329 148554.3158474701 -38556.19522676752
222249.25372524688 146177.0185250696 -37070.53354951499
223888.0724626423 148227.4255782394 -35709.19257565728
217777.4121126855 140021.6722250408 -35155.74581057825
219987.3019349941 141628.8578536215 -33992.629282085676
220840.8871406918 141162.30565385878 -31185.56100526242
221955.1713497289 143451.6444839173 -32716.315522457797
222973.3363318206 145807.4988772728 -34212.84865478358
223636.5781240234 145475.2905263623 -31335.654955378883
224211.58098046662 142996.93312151602 -36797.322192884756
225245.202706973 145180.22963167992 -37689.89767232233
224207.9974335777 141534.681362485 -34453.61413300279
224659.8431227618 150716.52666998262 -37100.30550419172
225132.7316567215 150483.05914093548 -34211.95004481353
226762.9245811301 146788.4932397561 -35665.009320666664
225611.7212966379 144136.6481593445 -35059.78202500054
227815.06497242942 149555.4023686835 -36100.865664773286
225774.7137139388 142858.1474386119 -32456.46647989117
224375.7263112025 140282.8635657994 -31894.99974191946
224441.5698371522 147950.6480622654 -32770.40431832409
226982.556228708 145541.2544910891 -32953.314067435946
225540.3423029521 150234.751787402 -31246.30668712616
227933.90917059 148161.5923553766 -33403.00201194639
228158.5456463569 147078.3514161026 -30681.851879398782
228691.9511878004 149162.3045581115 -31474.05905642777
228891.0788539043 151038.7358382628 -33506.16034363839
229349.6651183742 151008.0330493742 -30776.89313679151
225313.33141484918 153254.8029184706 -38499.752964887084
225715.7704100734 153030.6463284757 -35564.17219668784
226177.7931192072 155627.5522646317 -36933.14875606278
226543.92532077612 158322.7141789005 -38271.46223946075
226745.5884554603 158066.7128610867 -35332.20580998422
226964.88051669268 160739.3340766565 -36710.83658925519
229465.9095993522 155232.2793161464 -36897.79591255546
228724.64782923838 152399.9711768972 -36554.71072535811
230043.6648589223 158037.1850440428 -37197.64894379067
230485.4160492532 160784.33806239458 -37504.18941204808
230637.0389779405 159895.8701805557 -34939.65833501043
226032.1107453199 152809.24825141428 -32595.954663127657
226437.821223214 155438.4596086594 -33978.51513348941
226647.2430303273 155257.32217118947 -31018.52157123675
226921.54182057892 157891.0477120765 -32369.99487917542
227122.36575071389 160533.78243725142 -33716.74400175068
227241.6866183131 160285.51442948342 -30885.1666054163
229622.3195033097 154096.64688821472 -34296.87429461923
229734.3477272308 153183.6327224804 -31697.11247514668
230187.9979156172 156955.22805199618 -34598.675948858996
230260.23622759338 155755.4020964159 -31867.284950469082
230685.2824910845 158733.11076791259 -32300.190927374857
216489.4716187263 166312.54733116832 -47240.04650873605
215317.8496823712 164881.198297308 -45380.48549485119
217332.0519878012 166380.59586058863 -44328.52265183165
216147.83237098082 169815.75322898 -47034.12479964408
217732.0748463243 172321.1364918516 -47679.60459881885
216369.4823488183 170547.489088811 -44098.33740876159
218585.2420807825 168135.69305556233 -46370.91638145087
219405.7840346432 168226.3429035201 -43673.67734626593
221844.8956550106 171924.13667717198 -47589.10432490716
220673.3282264985 170089.2826157728 -45568.553186195255
222447.4910644497 171745.7930492415 -44982.907901485385
215830.2156914386 164647.3142892006 -42663.764005870325
218065.8671068648 166319.89740133678 -41288.54064669591
215980.15622573812 164240.7939375598 -39845.0128688945
215675.323485097 171910.67484250088 -40570.29945794997
215756.11892870758 168672.6859482654 -41193.57269081234
218228.9096524952 170298.7749462402 -39588.91821359761
220039.7215529473 168245.47653682838 -41197.3518117754
221589.2388582374 169611.5142215971 -40027.56327121231
221524.17469134388 170182.4174568173 -42839.005634133944
223635.5313588895 172003.1278728538 -42126.605220564896
215459.28039831718 176716.2154225612 -47200.46255369235
218640.6188334357 174225.2693151715 -45252.37334814982
219409.5442685137 177008.0681435061 -44347.34475799894
216216.0026961295 179897.5563990399 -47104.52474501352
219290.7405819403 178292.30539697182 -47188.671255233916
216573.6524136517 178061.62548475852 -44302.3257742155
223593.61441036718 173536.3906367339 -47313.77914913278
223810.2633386661 172950.1812406212 -44742.28805224996
222431.7778752939 177044.60372311 -44485.408403291476
215411.2315034497 175173.1770653809 -42976.884952187334
218793.48854187358 172346.5769162333 -42266.56178399011
215809.70088596852 175257.2428830311 -39561.40135916798
219033.5480701635 180193.4218975608 -43377.389327741046
216655.25303257498 177891.67379687622 -41128.26053823524
221332.9023592946 174296.6191109911 -43039.6977053287
224078.212655705 176142.5916910312 -41706.57314275776
219482.2832391279 176452.9269526772 -41373.99316542207
222069.5904368693 178636.7211674921 -40711.05642567249
226068.87618943822 161268.19434405642 -45523.43332982231
226231.6077343573 163976.8491952501 -46740.03752125863
226625.2048825574 163716.8284491947 -43934.79329874061
226590.7461754091 169036.14570706448 -46584.68413476095
226603.3582224936 166410.3742199345 -45306.94555235608
227007.05164805488 168904.6549025511 -43724.43952728974
229167.44965497902 161234.0678279644 -45600.21477432326
229412.2916260584 163908.4227823422 -46749.09905702489
230025.9614947206 163615.0223291829 -43983.416464746864
230152.5556853863 166204.57976215828 -44984.97862504311
230198.2829890468 168962.3308072997 -46122.573259112505
230738.9663029125 168605.7196761623 -43251.863891973306
226530.3413379463 161090.3089747806 -42604.287558386684
226953.4606696783 163529.0567077586 -40987.13569201476
227039.2515382384 166181.0558566625 -42326.115547805726
227310.5941766822 168544.6893514258 -40917.08702772887
227257.5925024341 166032.0119270252 -39429.01971542642
227270.5680714085 170500.41485657642 -39551.78111485884
229858.4522721735 161032.2001396461 -42708.36757862872
230472.8696809756 163460.04350759072 -41124.056079137285
230649.8315304087 165929.4746951128 -42265.92256165911
230913.00665412418 165857.7288860398 -39405.28707614553
231010.61548848572 168394.4802028935 -40499.90425248741
225830.0541175401 174125.2839427984 -46145.42767445587
226802.60810656231 171506.0247129509 -44946.59740517681
225056.9044530423 173628.02745945193 -44077.70523026566
226419.328641476 173341.9689014967 -44033.47234901592
224277.8434830288 179535.3163501304 -47721.88621315069
226959.9931163603 177310.96235026148 -47416.59671506007
226480.0237979319 178497.4820524824 -44161.34257758227
230169.7504786737 171726.42815230502 -47245.346437513166
230568.3086496721 174062.75571129832 -45483.15063277569
230695.2084786066 171306.7598506896 -44358.08391947927
230161.9921063458 179990.6451352399 -47548.615195121834
230403.75010244778 176777.35204019689 -46459.448009702784
230701.000593975 179184.7197653937 -44722.794590426165
227148.26299168958 171409.9192734403 -42173.7740949275
225793.7925218608 173293.7302379016 -42139.092207147565
228009.79422369658 175904.79241073062 -41901.46154918627
224255.9891439183 180326.2254542174 -39393.53453865309
226190.46351061788 178005.4755674071 -39886.03514908517
231077.8371560742 170981.6048636146 -41484.15115786466
231088.411356651 173646.45838079992 -42536.30339664523
231270.5968143288 173227.3042583669 -39609.439026016116
230928.6244452073 176415.98130950998 -43634.63597499596
231136.62365405099 178754.9107607652 -41821.73096707351
231222.9620309948 175991.1791153874 -40696.1120057254
215969.1359835767 163751.5122632596 -36961.16237852846
217737.19150412153 165498.7117302135 -38219.512189853536
217619.3890511286 164905.5417687978 -35365.33796152242
217323.4701932219 169929.00652865562 -36568.06015013169
215756.22902356618 167392.071905185 -35649.95290818945
219577.73622487078 167393.60039154268 -38953.01454776057
219515.2337117114 166858.366153617 -36264.92017379078
221431.5147358417 168932.1199514563 -37192.42803797231
223391.00814232588 170961.26909049018 -38128.53921005537
220029.3023150517 171802.75261269283 -35302.98031183336
223196.1338964808 170256.1346903618 -35412.65981505845
216078.1668984927 163415.8765067719 -34427.60081701283
216293.2773197493 163311.6088591005 -30488.83796990428
217269.7937937895 164269.9188627716 -32424.893723460882
217325.48146251138 171391.76533170432 -33077.37452722694
216412.6491119423 168013.2901394329 -31952.74529896474
219260.78364548722 166182.01468866848 -33383.37744188539
221271.7673943456 168241.29485231568 -34306.236761411514
220940.0211732765 167726.0705155626 -31397.180676414853
222969.6806434055 169684.326009835 -32338.275721368347
220388.2022786398 172158.9770959497 -30800.735142096753
219578.0231226078 173090.64659630888 -38905.19438706955
216119.30561039798 173516.86416546328 -36610.70653951371
219820.991592024 175321.60332645618 -35387.68658762066
217997.4033598316 177404.13719757562 -38000.57600932368
215366.37203849948 179468.9347921614 -35472.46917785953
222645.9380483503 176032.4905285902 -38522.81351429411
221847.9567967868 173639.458108635 -36863.575575282484
223838.85854645792 175482.41291784 -35538.32972132034
220897.6022908189 179851.4638658758 -37702.1621451612
224455.8413368016 178997.8534049525 -36642.87738743351
221763.0729574764 177954.0588251288 -35074.79018607412
217855.03344149378 177694.24223958811 -34536.983991620196
217157.8726508899 175043.2526841276 -32892.50140506903
216136.3496506686 180251.9402559528 -32722.299729744278
215399.9789057949 178526.2481933789 -30430.9939322768
222961.9871337125 174825.9247452605 -32467.025762421123
219996.56709246198 175029.0888797681 -31767.13209231443
219732.92125032 180475.75648698548 -34510.05034442433
219811.4529527601 178065.21610159898 -32036.40348737184
223956.3392530061 179008.461856323 -32866.34653831399
227109.28035609002 163355.226491859 -38023.9420015473
227291.4185864213 163179.5060685773 -35061.943743282594
227416.10521136867 168484.8941657985 -37739.81480401848
227408.3716920926 165829.59013502538 -36403.73068348617
230756.3761989213 163408.2498961722 -38314.086673080616
230966.7007634049 162941.78211315678 -35575.693543111905
231158.07667027367 165748.33834246307 -36472.180730619206
231214.0166492511 168107.5477942375 -37645.51909695099
231264.77389677812 170637.9992510664 -38608.451681998944
231449.4958407164 170211.259253529 -35692.78248743291
227509.7346611919 165360.41417895022 -33711.31570752089
227398.39223098452 162819.11349286532 -32294.6182003774
227513.12826805012 164929.7270217514 -31245.626826527812
226959.3323806974 170731.3797565465 -34606.85253050315
227480.94773930238 168338.1673697548 -34684.01473018956
227172.4894613203 169585.1624213467 -31852.53814291241
227506.58672885108 167347.58156413308 -32510.02180907396
231292.2894850612 164891.03652996648 -33564.34469468102
231034.8009227039 161688.55569471238 -32573.08554242665
231408.2488016231 167584.7416659705 -34605.17369787601
231468.1672920835 166948.3527326856 -31235.2803521147
231535.2116155857 169653.1589114178 -32574.589779043352
225657.50795652822 172592.9598379631 -39144.40272239375
225301.0463677221 171783.9259193686 -35896.40344729369
227141.4294059243 170775.486659074 -36958.77941596094
228009.67952872 179384.0984544565 -37097.56836091094
228121.7139237839 175585.5701074025 -38544.061529753664
226983.0157985024 176343.11610345988 -35459.25125486909
231400.8681453212 175565.8218466167 -37748.24661014883
231452.5678337429 172795.5577219668 -36641.09193452785
231315.05237711789 178334.3673944452 -38854.25167093902
231492.051409106 177910.77837872048 -35905.375246076
228655.0346594596 173577.4580550809 -34721.54486408161
225235.36126532478 171268.13388942718 -33370.18919640361
227888.2545513465 178345.9827776879 -31768.97021613813
227423.04974836909 174442.601775786 -31768.16345418225
231577.28060784272 175140.473548948 -34800.1795514626
231594.0023370242 172379.2141109148 -33702.08916037585
231579.6057238307 171945.89187785372 -30737.46620342385
231588.2367249485 174716.0532819592 -31846.62021305834
231523.9356704714 180250.3600926367 -34061.60965270551
231565.33825916488 177481.7022433564 -32974.142123130936
231478.925436202 179814.64978836 -31134.226792382262
199805.2074537112 184240.5716838069 -66702.12477263779
198001.4201922697 182446.8282863417 -66553.4470848381
197974.54905562612 185518.89371384538 -66610.18621041882
197837.6583052742 188581.9990345015 -66507.51533828015
201989.73579176792 185033.0298936885 -66604.35673199182
200855.9572915171 182306.3231827083 -66597.06846122717
200196.2737531515 187113.182651938 -66624.50088996347
200447.0351978451 190256.5105339681 -66429.78390473578
203227.2526099479 188236.1658630674 -66472.77808373781
196704.7742052461 181609.52043792882 -63559.285942721144
197195.7845987994 186596.8000826575 -61952.38115796217
196371.599025087 191355.0880774204 -63717.389852243374
198742.1246294222 189545.4204951056 -63358.35383151944
202045.0978459752 183010.19530707298 -63704.029039698165
199498.00216851532 181881.2226669036 -61696.108109656765
200123.9045296963 185569.6163433138 -63510.25463228446
203093.3351696134 186388.07058323998 -63678.344139194116
201506.7701630308 188265.7324258823 -61814.7891399956
197772.6366369932 191539.22849150188 -66368.12204946607
197871.2783637766 194479.0940281969 -66216.03845585746
197621.6129993516 197250.815456379 -66058.57030924124
197486.2769522609 200223.7584996065 -65872.04185695876
200188.7664638517 199035.0623765997 -65748.13556024262
199855.9930730204 201964.5849249443 -65483.02872400753
202907.8935322154 194712.5968766451 -66477.35346822932
203007.3370841587 191720.0576348683 -66378.70375294823
200299.59486055988 193105.1435532072 -66198.82247207001
202491.70403115908 200817.8726155631 -66468.64244823395
202816.2206358617 197825.8340192891 -66564.67861213927
200260.7856599979 196095.1476949922 -65974.19615206713
196598.4663863321 195066.1450606289 -63279.80926450142
198512.7271526872 192715.4220761998 -62108.58376808311
196268.45171589492 199185.4241026012 -63159.58318631097
197737.4400170475 201513.3623989049 -61565.94120285883
198468.52249945913 197327.92378239718 -61883.63264884638
201492.2467014321 193646.5399721462 -63300.01039364444
203170.112898859 195958.3273994189 -61900.35190792807
203622.00889147352 182743.3843516199 -66482.75748790454
204521.1440547669 185259.35416140352 -66429.3744734683
206241.0136983065 182992.5777263263 -66316.82893234193
206069.9058424946 187455.68573115862 -66304.95209630027
205643.7251581313 190401.67232740892 -66278.99866630932
208298.2358607032 180834.35828681893 -66165.12384776538
208688.0665942917 183611.19790649432 -66151.53337766866
206724.8076264612 185158.08066697032 -66279.07292441322
208280.22486904918 189116.7514740185 -66137.1764207151
208643.4060853971 186283.0350283378 -66139.70124741195
206746.2398216058 183369.2922968069 -63146.27005646541
204302.1066928611 181708.50770999872 -61835.69053050408
204513.0907702647 189099.01015593082 -63290.09110558898
205608.4936683825 186131.3746864952 -61910.93793429128
209604.47323764002 184336.6590301786 -63241.60844667705
209718.590726994 187086.3021616152 -62000.308356294496
207302.84006986552 188014.7926228016 -63521.42599504441
210151.9982055193 190043.8994014679 -62959.49395974309
207348.7783773001 190560.4705618995 -61644.05740544713
205285.0765894975 193093.7453131897 -66211.049527438
205402.6674690338 196379.26045001752 -66104.21749016157
204951.7664027263 202356.86084293821 -66320.49546176016
205210.3220761032 199398.2972652885 -66122.61042184768
207574.0858863745 201018.1522776139 -65846.42198042874
208114.5897351302 192088.59700259502 -66093.22237246703
208166.48655056203 195078.4097267238 -66004.3010910967
210480.35447696652 196745.1046045059 -65833.58632257304
210645.3064518951 193759.471156895 -65904.25457605158
207835.45101661098 198031.95901573118 -65919.67451284543
210238.0566201903 199681.2110693356 -65748.35988108063
210009.3973068223 202627.9263726786 -65428.866321647816
203455.3273600395 191874.1436375213 -61532.6492186687
205139.7418298664 198812.9763600833 -62628.23134222232
203656.55174685322 201921.18525019212 -61793.095450015346
206669.655326441 202324.39509023872 -62991.16689283135
209771.4343184355 202454.0430789908 -61971.8999884532
196093.3876951367 183281.70550612672 -60699.67411126677
196267.7279137246 189985.469266655 -61045.95758304977
202030.2063638636 184611.0758247816 -60771.06206558409
198927.2816799458 184587.31887584922 -59986.814619789846
199887.49327310562 190510.3976090702 -60415.59854514014
196476.8948359126 180811.0588275389 -56979.00870175937
197462.0422510521 183596.555974104 -56994.96182309728
199327.57596632358 181403.4496603481 -56618.03241151056
196548.8868504852 188637.89466128798 -57678.14320890461
199426.1674992434 189126.19035823992 -57678.91029677992
198456.3644962555 186336.7659711523 -57348.36395514506
200375.8051818257 184084.6072238537 -57177.39996503107
203293.7732663684 184639.9101148953 -57148.57206549038
202278.349682611 181854.9180515285 -56764.30103540586
202279.6987869918 189758.27808120148 -57506.221852168914
201381.0771128955 186859.0827407622 -57410.88164946173
196646.8805701005 196418.85592454678 -58140.83661185435
200337.4268278385 194973.71250802642 -60649.794537990354
201531.7719691418 199077.8654921375 -60991.402517073344
197515.74091511618 191395.8986247158 -57944.48626757362
198569.0372847227 194200.2003120299 -57881.63517008632
200407.57215562603 191975.8215216031 -57732.24905911956
197650.9826034825 199210.013071568 -57596.23255642872
199614.59717161598 196984.9470032813 -57772.3161500456
198591.3966804233 201979.638506903 -57196.869439256974
201497.1931157874 194742.2253694941 -57623.43922857235
202522.7237710825 197531.8657629588 -57464.76726209856
203390.2586302232 192506.3728381472 -57471.47182094535
200529.5684104645 199771.7606075175 -57562.705168972985
201495.2881140709 202553.80940756892 -57256.98955298709
203459.920660025 200313.82994639612 -57349.8432361182
204941.77111278923 183960.271451355 -59737.677140224565
206037.8774147859 181105.22341300672 -59010.68169577708
204120.2722028646 189059.8727842661 -60076.60336847189
204270.80785629142 187480.8122291699 -57248.271860947985
205272.1964989651 190260.4111823758 -57271.58876328224
208774.852524966 183022.17735913148 -60653.510018177745
209343.7245098273 189201.45105609772 -59501.61041942997
209945.60484816792 186121.9197154282 -58745.93194489069
205064.02301526 182565.83427676238 -56133.92130054481
206114.1496007398 185296.2443944626 -56754.085044003856
207695.27237555722 183226.8073508616 -55234.440202549406
207148.1969966842 188037.2651034926 -57043.4108188324
208141.29715251658 190768.0052656485 -56948.788542436116
208686.2759641493 185837.95825219143 -55598.55344999997
209333.48055335283 181316.50265811398 -53168.61944749538
209876.6293827256 183882.179891606 -54363.25414822721
209712.6384071399 188564.7787398957 -55673.296945381066
210534.3060999743 191332.3375481559 -55513.15083876709
205518.1199481514 196988.0092038439 -60135.01962335505
205162.39223167032 193824.66377378692 -59926.33503885537
205964.5335219902 202225.6745762593 -59810.20354540578
207497.84219913578 195005.5417376692 -61491.59706359287
208187.900250998 192689.9980761629 -59603.6783841532
209355.0771073595 196609.5695788443 -59256.51407822537
208361.6425654932 199364.9198015339 -61259.66224547935
208868.6341867395 202248.3421076309 -58852.58178215893
204407.83040232968 195292.6242254558 -57362.24200617479
206299.6816862772 193027.83747911078 -57211.47130843441
207186.35531888192 195736.432321973 -57112.910409619675
205354.5301619363 198068.4050398169 -57220.27040321537
206318.9587563868 200780.3734001164 -57065.224225806196
208945.0088221291 193461.1114637751 -56558.96078455498
209338.91921710118 195745.690821225 -56204.59468742716
208435.1847137321 198377.65779689662 -56441.86366280933
208559.93975657882 201133.1579079245 -55811.43413874527
197187.175315258 203159.3600984715 -65691.87670869294
196929.8381064741 206076.1462992875 -65510.18427920692
196714.0459899832 208922.8728346602 -64651.615549392714
199163.7090311638 210634.69647584631 -64350.70567116142
196509.78642912928 211796.66285900338 -63723.64219869955
199610.7066209517 204862.9933506465 -65298.5584392858
202249.2770114159 203697.4980079543 -65943.8828330141
201549.6656455608 204835.70626810062 -62986.64685440091
202045.1568524512 206562.69635543562 -65482.55568677303
199388.4499593347 207788.2968470394 -65108.896330865005
201805.61862188138 209446.0211686567 -64866.90569905426
198062.7918106269 205267.6306543762 -61872.940149238
196752.27709695118 204225.8619756812 -57777.59935970018
198717.27574746488 208507.30139175578 -62251.750055309385
196202.72772435378 208298.58697128008 -60589.1575832716
199028.615004428 208414.7198634572 -59247.54904245841
201268.8891685625 207048.7530162128 -60954.69446299349
200633.4420738179 203245.8826487561 -60591.18508549941
200522.3139966178 210634.4815500215 -60872.529233323985
199860.7511272463 211430.9656551145 -57365.371718435345
202524.70207802302 209568.8847058399 -58296.742470954836
198929.67327719528 213472.0944886013 -63357.865127362755
196285.2864247615 214634.9373069433 -62798.06889070671
198792.4077160903 216200.2279951437 -62390.95715105731
196399.449724944 217514.1756098868 -61054.24348462803
198949.4764320302 218305.60629405538 -61259.253583868864
201570.9089377092 212305.994939153 -63959.28584342019
199804.50700860022 213844.239552554 -60382.97867290691
201368.543736426 215115.0709997166 -63068.589119355645
201191.5585053707 217705.4703315247 -61602.73569822874
197508.5524450996 212016.6551045323 -59314.19284271311
198693.26317591048 215717.29820286462 -58144.54979086965
198058.6840287166 219940.9940396391 -59585.58482550618
197082.3969142718 221971.1743775566 -57763.07912678671
199722.4246812198 218451.86276366602 -57476.7153869714
202188.06083655532 216225.7917462124 -58871.54225850223
202243.5758401798 212972.4404183485 -58638.076117590776
200724.99256539068 219717.79333370322 -60001.65042805782
199992.8498662585 221808.8448843046 -58263.64219425801
202801.2462084783 221198.20505645568 -58510.22807460384
204698.4779971934 205332.3344537064 -65980.12686382655
204398.34843989532 205534.08923873972 -62277.76786339045
204414.7930430896 208168.1112566561 -65026.31380537909
203682.9307914625 208610.1698668528 -62065.2480217207
207371.6008666091 203990.4139329138 -65713.00454651614
207074.5476184613 206848.97798098068 -64964.81600259968
209760.102862692 205466.5196736729 -64716.44138622254
206779.41860505438 209739.58811595078 -64399.44687653534
209380.7390167663 208351.69076552198 -63975.41480358516
207578.7577784238 204721.90944412258 -60527.45208240292
204523.9168008732 206064.07039725388 -59151.45788486398
205608.69912277 208997.2253078148 -59690.26314490295
207512.8054505086 207240.3438759708 -57812.54327072295
210349.32730408703 205474.3529189511 -61669.90758126508
209975.1884074013 205198.2297603085 -57879.813702565625
208484.6205851886 207874.2395950253 -60840.92153670331
210291.5424981628 208769.4148640027 -58235.21043568415
204153.4246724189 210982.19591033852 -64196.78994445933
203946.9964949755 211484.0884199908 -60983.67037794484
204044.75963479 213814.2834303061 -63259.47344824797
203729.51758934598 216518.0574144175 -61952.15562798877
209024.03317444108 211109.8088828959 -63230.806509163325
206427.5222870065 212364.81692924432 -63173.69168834701
208542.04430717518 213600.3889554643 -61647.866611379526
205970.0085229908 214790.0144425287 -61430.22879549428
205635.6908031169 217276.06109223832 -59797.997999334366
203338.7438649793 218929.2883512525 -60288.905264837136
205336.3316930668 219663.1836718812 -58219.926149895895
210476.6333085537 214831.9195629731 -60021.052814412345
207838.5109085867 211891.1862100313 -58132.612219096336
208037.3519671073 215863.86724519558 -59848.42795761349
207699.9860768495 218208.1678889195 -58094.981586022004
210219.179614083 217039.7687317243 -58253.259144301264
197687.3499155896 206763.1526017449 -56951.38424292492
199571.4244018808 204706.74385586948 -56778.2640377451
198258.88332768538 209301.4127757656 -55761.37713220066
198207.570199321 215092.91474361852 -54963.240917461
198921.0407296968 211702.38040283578 -54400.960184468466
200548.1043567964 207356.6939402552 -56318.793959512295
202475.7384571322 205317.41582758288 -56845.3932827089
201429.7905661513 209733.3932495317 -54918.89349024171
203354.72743146392 207737.4621862899 -55515.25337775132
200979.11898627688 213951.130364964 -55925.99764857035
201697.8464704202 217010.89320618668 -55743.4136182647
196741.3824050511 213184.2675810429 -52729.057234232125
199654.8615089799 213525.2658006731 -52474.405210471705
199719.4849505107 217211.29692932247 -52969.9899999536
197819.7462765007 215224.89255158207 -50605.230453819895
201889.9140371711 212019.2835381944 -53612.88827323181
202576.941262294 213668.2306589947 -51940.765436844544
200914.4657913961 215259.535895287 -50438.46789294986
197410.167624611 218259.3570649559 -55253.535042799784
196122.91234897712 223505.5741773304 -55440.153026896194
199060.23129139398 223404.4942152937 -56070.98313727445
198059.5516635146 224930.9182844779 -53661.72214762879
200320.7789186928 220087.67136638408 -55037.633191963745
201940.6007965517 222867.002933421 -56267.46977611607
200975.1954564777 224457.7274970346 -54026.74424867423
196903.80668215328 220630.8391186891 -51471.669844920936
199637.1399274832 222465.97144728948 -51754.84529246518
199318.3474526337 219656.16548295593 -49753.32791053035
197092.3293135133 226421.38676549768 -51250.9017785235
196501.48364380372 223548.7406834318 -49103.416068984
199023.6013376117 227186.3605842049 -49203.51999659516
201615.7075849113 219821.4030010547 -51857.49706181646
202789.71760508302 222432.2441045743 -50137.741152713825
200018.4223107468 226033.40137601653 -51688.630740894514
202888.6757841844 225273.0365071676 -51890.58369736541
201900.1564793137 226451.96597980522 -49545.69228346934
204472.8862722676 203083.8150647215 -57282.371012606876
205318.6981394754 205654.9039908739 -56106.56593289053
206222.03012226667 208192.04082738512 -54844.53608187784
204765.811644059 211600.2388461477 -57065.71362814541
205741.7925777377 214548.01824725352 -56054.5452140498
204242.2957699447 210275.2891545737 -54127.203259523056
207035.7619638371 203278.8325115028 -56001.63429221193
209603.6404831821 203296.10672952989 -54702.92732425121
208863.88012263778 210085.28449165833 -55538.00614440175
207974.95068362632 205809.79046124461 -54805.99805749653
206481.5892647861 210515.5346720096 -52373.158621343966
204080.04677555308 211931.9812513284 -52620.953931982076
205189.45536679478 212840.8287063369 -50771.0946026921
208578.7157728958 208046.1036973848 -52883.83523024183
210228.265714713 205686.42983746552 -52948.02433737821
210629.31000355288 207555.00171681299 -50859.29615851097
208168.46612716 213256.1553821874 -53086.70574570672
207831.1000595436 212027.24145080338 -49725.374085238895
209170.73473000163 209724.6668563607 -50639.71647735193
204603.74231413452 217305.47827499508 -56489.94027448956
204863.9895473658 218319.7892740124 -53662.97058229204
205214.8578255928 215203.9378141504 -52951.28069963831
204671.2610923944 221704.601573592 -56237.627075812954
203787.65975973848 223469.9609675933 -54088.35073301763
206483.44103782112 222201.9597108776 -53966.61570698113
209072.9183180657 215234.18881145262 -55563.610045761445
207283.8447686948 220314.2179499078 -56159.46193828759
209794.6711850407 219111.8383042629 -56188.99968659246
209161.0814761252 220918.0809273521 -53903.94674323605
205544.0251715875 217712.6322164149 -50327.05333350788
203620.1837716592 214936.4385117602 -49584.74961150853
204984.0211223825 220720.1728782128 -51620.95465075879
205612.1316427255 224062.5408496079 -51805.84245023327
204856.4924016156 225657.5216041226 -49676.259319537625
208117.60346723118 216446.49756418928 -52259.158359680514
208506.6479471223 219399.643705686 -49741.50041045778
209006.82333996161 215194.0418086437 -49472.77968925854
208319.8992853591 222755.272577153 -51737.67275089632
207776.73824165712 224481.6694327896 -49550.216812374434
210335.33332690602 223398.9785486738 -49555.104812075246
211219.0563334453 184799.4163639748 -65973.02355213922
211330.4285651038 181495.533287278 -65971.60324532528
210957.0404275548 187811.87614270518 -65969.25735110675
212333.8481831002 185607.2226299147 -63016.73823491831
213805.50366042828 183458.2467948309 -65802.16913660975
216303.5650624845 182113.1728070863 -65376.83727791305
213597.7838461691 186455.98476872148 -65799.2635254276
216051.6453728053 188075.5739840752 -65266.56118830932
216187.4912493925 185105.8997809973 -65343.0444643251
212474.6607759917 182565.8377979451 -62127.622022873096
211487.65358062097 183282.2501724959 -57682.49537672607
213947.6749231341 182702.3394964968 -59432.67643258021
213590.0570619892 188436.1033791307 -62324.098010639515
213138.90479419622 185816.88269496438 -59878.32878861195
215686.1699453004 181075.256628234 -62301.883195502545
217009.7740354345 182542.9775860515 -59654.68529271123
215392.0341674727 184398.4862553455 -62065.80424643358
215833.8907420155 185173.9751898979 -58361.211103837864
210767.1616486148 190772.3231133137 -65950.51942466115
213255.7279208444 192410.5718313039 -65763.71239743306
213080.43540862558 195383.3405421413 -65721.33513311921
210704.20065818517 193975.3130226976 -62418.419139027246
213422.2542983717 189449.4130283079 -65786.8553275654
215858.7004587447 191050.5831038124 -65178.516153614
215593.6438941221 194040.415476024 -65049.230166611014
213681.08156576968 194801.0968788324 -62725.16078397083
211971.2039922345 191218.968444353 -60686.83834405387
212239.9567908917 188769.8485640995 -58144.26704365882
213299.7010895583 192111.3797239932 -57648.085019463484
212244.44389128662 196500.5812608617 -60560.52354433205
210965.5814732484 193882.15237740282 -59088.49428788116
215265.6975242658 192316.04401621709 -61749.79732052536
216240.4053734064 189276.304451264 -60018.591898075356
215989.8511570014 196639.4525527951 -60823.26928259484
213969.4589889104 196346.99299962408 -57276.954304203544
216228.038476061 193677.67298522382 -58523.80744578947
218061.9708698994 180924.7949170056 -64592.45530179126
218277.18481024622 183630.0258466723 -64446.772078774484
218294.2991378747 186697.2518216888 -64318.05223938051
220022.39307651873 181905.65113045988 -63696.80199705599
222128.8318950887 182767.75136328102 -62664.3338725665
220343.97663563062 188222.5230361714 -63319.41085307252
220765.67669582702 185047.05131820502 -63265.02371586195
222266.8811621351 187043.6486238227 -62118.64305188887
218185.6066660195 186048.4791212724 -60566.964774280204
220015.9522481112 183941.67484152748 -58365.17579083491
220499.443423535 187844.5947389811 -59791.41240272208
221868.1979343152 187198.0645064984 -57166.5575340977
223695.96933048542 181761.913545087 -60921.31619513353
223094.5871193141 180934.8998784258 -57314.493211016976
225446.2791767911 182967.6366291185 -58850.296908856886
223420.294907747 184874.3474486135 -61010.95461790569
223774.32143612969 187807.86922794228 -60329.102907214394
225488.3753945163 185979.4999690812 -58562.084231322995
218260.5194082807 189684.5702057868 -64185.00964362905
218149.6183990384 191529.3222843107 -60946.21698958786
218005.7949855004 192648.33158132771 -64109.58440957539
217880.4983244693 195613.3917397122 -63903.69922673733
220224.5048302322 191170.8826772254 -63215.146117919896
222102.6149070973 192411.13694157058 -61614.407185255535
222131.66881757102 189451.2669382117 -61992.784099411554
220200.49050942608 194082.2731487834 -63028.79262846173
222081.6735089276 195262.32725883462 -61127.9210952992
219956.1539043256 190283.6657312795 -58077.6088765026
219667.5802872308 193592.01768330022 -59207.61081202605
219573.38867992148 196437.13785292412 -57157.78376890241
223834.3766936003 190611.4228442357 -59932.58657318613
225532.4136619929 188948.9359796152 -58213.81156236707
225545.7164150982 191869.4458869524 -57835.70818107374
223688.98702272822 196528.1041675238 -59087.9678115919
223798.21536528852 193567.8010801962 -59538.239894445556
225477.7791435094 194818.8794570486 -57414.20936986155
214614.6927018754 182889.2971286405 -55672.547316075725
211422.1093036546 186205.9721142734 -54170.63991568898
214564.90079452662 186907.7952033825 -56045.72885115674
212926.8719452734 187874.8474913311 -52841.46233901932
215717.70522882222 186426.5856919023 -53144.4383672106
217944.5546698657 183329.0593256539 -55790.436265608885
220069.9343918994 185418.8701681385 -54498.81809113718
218199.0314987215 186561.7930290405 -56793.41129684875
218108.83112150073 188474.64802848297 -52887.60230909425
211346.8963392219 183396.401709935 -52389.54159558677
215203.3323536663 181634.5676078688 -52311.57831213578
211358.0739237417 181265.1527879098 -50600.73697645103
213096.19330428232 183597.7839167971 -50092.86197012163
212923.0320434864 185838.1740275025 -51794.77891747127
214124.10315499868 188461.762355689 -51142.818311523195
214549.30552339478 186087.1313568857 -49425.5385240531
219821.07591650772 181101.996344079 -52019.76922482832
217819.9617316335 184148.722521011 -52533.45942102869
220268.9020290235 185953.7901244009 -51376.96274517044
217520.2533245305 185007.51385871938 -49505.079675491375
215853.776182752 190403.4879430708 -56113.44164710598
211972.2209278844 189387.17249184087 -54433.184016146275
212445.5796550097 191782.50926634832 -54337.85164484031
211393.8916915583 194100.620147919 -55013.376654278516
212923.24112012988 195705.3345827226 -53773.4138031101
218189.6051308611 192308.61595761642 -56620.898760925156
220251.0771275102 189205.0770719257 -55109.541389139624
216894.59068364082 191871.42944991708 -53234.65650260162
220112.828699782 192253.76728371068 -54245.75138109482
216748.9024154291 194914.8220217003 -54732.01670760288
219555.1759332368 195200.6868455392 -53421.13183063223
213417.3474529791 190318.7960621698 -52838.252252893704
213626.8506906646 193284.92276960218 -52788.8915341024
214747.298001774 191048.6775514685 -50737.10481084384
214109.7725743631 195843.17377776752 -51765.98010175239
215237.1823000743 193698.8827219091 -50061.701918937484
215538.3855912501 196536.0575837797 -49265.46458977734
219297.0919547006 191121.5721853321 -50326.450533667805
217217.0278580514 196737.9529076299 -52034.82180169297
219350.5006681722 194991.3025551277 -50324.42791037646
221972.8529250188 183093.907587242 -55521.14794745241
224682.2322033101 181461.8147587768 -54548.84975784735
222292.965599213 187429.0979851144 -53455.35047949908
224474.51214509038 184495.08886431952 -53242.73819219609
226937.1353698636 181244.9455448093 -56960.945588731985
227938.20667421538 182435.2153061765 -54418.682208745915
226875.9926851382 187177.4464430921 -56209.928225251875
226917.2106653616 184243.3818765161 -56622.42893088292
227907.22635837138 185461.0466831038 -54077.09870163897
222585.3667823876 182297.50328813252 -52356.39461710483
221818.701565725 183609.8879470246 -49734.6149826091
225296.4203108797 181920.0777988153 -50771.595983218824
224895.3153959255 186905.4166778842 -50140.03842384412
226686.98585404598 184487.59026296908 -50036.08125716605
228875.1490047617 180814.182071035 -52283.67147519188
229704.9068981054 181978.29174856513 -49754.014957055246
228909.7458542416 186570.0353263531 -51485.26258611304
228919.4463152635 183671.1242488369 -51884.39893346918
229666.6610984428 184752.1187836536 -49211.21050927507
224237.9723307303 188488.62245177632 -55517.44315592279
223639.6432614839 190942.51890445058 -53850.630625459184
222604.4105337288 192817.9292101411 -56465.745779458775
222570.8781240735 195695.0585199963 -54691.288004289614
226784.8703921694 190111.004618682 -55781.962799178116
227720.9306163921 191196.7509917911 -53308.93661414137
227873.57935640818 188327.4613286526 -53627.057107935914
226562.1819790872 195983.4816208281 -54428.924079172415
226612.4889218337 192986.71187697 -55387.66817017724
227477.7154537951 193752.7772386503 -53111.05768313416
221828.70989910528 189854.5382211547 -51584.69531908964
225429.7422438922 190017.87416664918 -51198.48309286941
223283.22892732918 193741.6357206229 -51330.347397702884
225309.1481300569 195697.5957968981 -49249.49946287457
228818.7858431047 189468.5775705384 -51137.813893641105
227953.4571422647 195579.6963132522 -51357.99829811755
228727.9420698924 192570.2249237245 -50545.88900632139
212881.25023521142 198349.70787760988 -65514.3424083915
211209.0485043733 198716.8622413548 -62729.29857338117
212624.54870988402 201246.8437085 -64994.50546483496
212426.50478454249 204091.0794686127 -64368.99820784933
215405.71742718192 196914.13129208228 -64782.0606361384
215200.2511599703 199865.775810539 -64380.07358866056
214966.1845044369 202777.66799550198 -63876.531407181996
214730.8245075628 205659.0499371214 -63293.01418500597
210968.92948145172 199332.78663345068 -58872.33795806479
213230.5493747879 200705.5045618485 -57308.874913251864
212054.8707685299 202660.4643505925 -59367.90570091769
212458.5145912907 203886.6900298122 -56533.77130158939
213749.29366822282 199830.0044064431 -60998.518649125705
215916.1779626506 199410.91983257848 -58053.955588192475
215959.4709666458 203180.7567084956 -59206.78755608476
211753.2615846991 209831.51917812362 -62991.34158539757
212111.3679133186 207012.9819690423 -63688.63608798901
212720.367700259 206365.22360142792 -59900.17649631194
211091.2498047976 212426.89920897622 -61680.31540727525
213023.0943243666 213668.5706247166 -59777.93915097099
214367.2335098206 208519.4685202804 -62564.47777569397
216217.1568771273 209676.5900822862 -60462.02820079604
213736.8725144485 211140.9865258265 -61190.25848150751
211079.4392998316 211902.5158904883 -57859.1406402993
213758.0295379255 210239.62571555172 -56340.86499961078
212910.4398818374 215894.0098369822 -58119.6436061419
212533.2963505835 217958.1615168051 -56100.30851575509
216144.7978483012 208653.26452185598 -57323.108048786904
214396.8773402724 206323.8158959513 -56488.57272370136
215599.41767124392 212235.0031918248 -59237.63373377887
215369.712694387 214533.2459882863 -57771.768461023836
217697.2296959494 198467.0547043927 -63627.03907431884
216747.141272753 199551.1101924534 -60949.79200258091
217507.9288089411 201354.0611063774 -63238.419725787426
220130.26554252038 196955.9789185805 -62795.90383368259
221831.07727438072 198203.1926479373 -60687.0794068191
219450.0411717186 202714.80619887068 -61502.69740872399
219880.6795396498 199869.4241408019 -62208.54801175543
221525.01479389012 201106.4131752847 -60081.776731401565
219063.6997878355 199101.1144493605 -59079.41583558532
219523.3733371911 200892.5650562041 -56317.4185828635
223503.1957877577 199442.12776671408 -58550.59187338549
225167.36186835569 197724.0380389571 -56873.20008737869
223221.84256581598 202312.3030717744 -57910.80172300001
224808.25301140008 200498.5932601449 -56135.131860411784
217279.50759801292 204287.73891600993 -62752.86420295934
216779.1012374192 207014.2467570022 -61654.45345801438
219097.8954406622 205440.5600039817 -60531.951308517615
221301.11925410468 203816.1390389782 -59235.31510553958
218667.1588921177 208137.5065333018 -59454.089287161
218055.06443498292 205005.951489213 -56887.9821483136
217368.2135903341 212920.8335961344 -57520.29718466831
218044.04906082642 210752.0798743433 -58402.841886275346
219331.1108349091 211758.8816037171 -56014.87576561063
221056.2891557285 206558.3320427652 -58185.08325607002
222820.1663846009 204948.3345572353 -57035.26263347216
220345.54456212142 209193.47059820397 -57363.92684139116
210956.2994626834 200257.6296719622 -54658.579097720074
211052.6453737644 197055.2276725844 -55039.806706145006
212857.14601075777 198050.34636782692 -53365.74691910272
212448.04264941998 208266.6122765464 -53763.78094520688
211719.7250759832 203304.6345046727 -52708.36085585675
214988.6547968633 202420.8030442615 -55462.117704933706
216504.40695090048 199283.4424818485 -53916.46874496093
217612.6340516576 207913.3905312093 -54778.299692542125
215233.6206579259 204086.1562295426 -52850.847803261306
212845.7883050297 200769.2729896046 -52409.59555744978
213073.8808413278 203230.1507769342 -50788.102401158125
212176.7823569879 205297.2323280081 -50691.10222185131
210984.5589474512 208916.8557869975 -49236.28941126394
214273.5705726681 198667.2237048689 -50887.73797598017
214325.752868523 201391.2544586202 -49811.32272569999
216289.3396817586 206553.94184244 -51286.356986514096
210963.7941723926 212508.97535012002 -54665.80930271951
211572.30214782478 215836.9858762201 -53283.70604542319
211951.84675150362 219815.3439764017 -53873.41518570597
214418.8329291234 213106.1140203337 -54416.671470297944
217601.9878689235 214457.32715726 -55211.92942564205
215153.2800490364 210172.8248880509 -52624.371451884945
215190.0965307881 216448.4566211263 -55638.65303526963
214553.6693263858 218396.7211579095 -53608.17451700304
216959.8838161575 216653.4601238615 -53189.1001959178
212189.3140414799 212005.8541165627 -51100.30050846104
212162.4433831614 215538.0934176152 -49689.46870596282
211017.68170225612 221633.7594485836 -51720.001261498874
211239.6561859557 218307.1533125149 -51095.80047547185
212859.7638401541 222186.8580943127 -49329.05620050268
215632.10105582702 213682.953829342 -51168.41449939976
213727.4233170991 220336.7702262078 -51530.15959377598
216222.833632398 218734.10889521468 -51160.29172124351
215318.83973731872 220536.0922949759 -49099.27299926198
222005.09611718848 198817.542175765 -55625.70100588394
220058.50807768918 198243.01511137362 -53013.450104043506
220971.4695782012 203375.2554148551 -55026.625556567305
218265.2231326457 203818.72562995538 -53475.353458855745
221616.1655941338 201896.8067714399 -52320.0710249302
225963.1583584462 198726.1575307286 -54528.13989840623
225848.7693182165 201227.47659225418 -53331.38655184727
224302.3020824804 203018.6244660271 -55511.794794569614
225066.4103757767 203755.33334169482 -53268.20335507271
223360.82705254 198628.7013184367 -50741.19598166632
220124.21649327912 198280.6791771459 -49546.81101052595
218107.2453907794 200889.726328615 -50853.73667411606
218111.6427766138 204142.1112872101 -49405.409250939076
227129.4939140874 198255.4048603242 -52110.503507269736
227262.4287972296 200644.6222355921 -50331.48565298988
228077.81022284998 197967.6101513957 -49360.09706222262
226136.1046894057 203230.84347854852 -51262.375903654865
225872.9001752697 205515.7013729503 -49391.634214434715
221504.8347679708 210369.851312582 -53904.137515202616
219153.0250181508 208102.09249998702 -51859.76451316295
219809.1673236096 212865.7151669739 -53851.50206910987
219162.0737734299 214765.5796219137 -52526.61640987507
221169.5808892679 212684.21071450502 -51825.61988880983
223800.9479493874 205546.7834378852 -54417.34090892797
224822.64723827378 205786.3816212179 -52031.957797492134
222348.33910277858 207600.4669061502 -55358.0032629088
223312.3756335873 208007.78736147739 -53019.73207157116
221023.6648938807 205556.25694082782 -50887.29954361485
218142.9930743847 210894.9760851193 -50408.59356926321
218482.4490056248 216912.3289932325 -50656.220812798674
220517.3195972975 214791.498555163 -49970.03242633728
224586.8642668661 208044.1128913611 -50313.06421492252
221683.5875489508 208128.6891718882 -49395.742440568465
222977.7700773919 210443.3986250533 -51127.445402283694
222312.5179991415 212543.02843122729 -49185.36028708315
