863
185318.4863749824 205652.1717792798 -20857.23496720309
184514.72761484497 205262.1623089022 -18094.50402031782
186153.8320879786 210338.61851232548 -19709.9615284152
185185.8111663603 207908.37676304652 -19056.237129324578
180634.6295035829 205734.69957360168 -17129.000278156193
181377.61648055268 202677.6580910601 -16060.1117564158
182696.9947990636 211127.6508857696 -16770.943685504382
180478.2478832792 208884.76093358803 -15907.670342586289
184270.0746224185 202523.8592646927 -16990.36302739976
183742.9309071989 204822.50303847893 -15288.76485076171
185303.38077895518 210146.8634933919 -17158.40168426299
184321.36365671532 207539.22952909902 -16332.39107016859
182816.18445698477 216038.6497045258 -20644.27482350066
180978.7774972829 214261.5693116444 -18618.411433964968
182271.8388388369 219523.3322292128 -20767.79147902321
181543.50095636208 221863.36186431628 -18915.467555344272
184365.571087719 212681.0708258111 -19436.074726214472
185978.67728598122 215218.0597218078 -19288.04705342678
185150.8167529684 221898.44131836528 -19097.76827565006
181090.29618351828 218057.4501896076 -18228.800960500797
182611.703655747 221296.7596513735 -15624.30988472934
183615.380290191 215104.551854227 -16353.113373309601
184844.2043357888 218347.1453141863 -17611.22206566683
187815.7227002476 212881.5919459598 -20585.78544010887
188642.13066423862 214755.2991528453 -18524.565385884292
191036.445598863 216407.7275536984 -18946.890046812237
193750.1129695815 217511.8997408403 -19195.34605345831
186753.8621691885 212588.7775648788 -17910.04942377607
187482.7247497943 214535.33920459982 -15833.02324151257
189709.527587506 216434.6796907295 -16286.23031850375
187875.79541477252 217703.6588369134 -19612.20765229858
191498.3840651401 219564.32430308042 -20983.29305732739
196659.3982338944 217933.307479195 -19257.22980584921
195383.902399376 220279.92312960172 -20693.69090486288
188990.644538202 219564.8195011125 -16338.114983513542
186351.0876773229 221831.92494620619 -15258.47183982348
195149.6966053534 218460.58449460362 -16789.815213263333
192311.5359327709 217707.3395495954 -16638.547939544493
192749.0849552099 220367.12597385282 -17875.58315096054
196048.85765274402 221414.0323754308 -17258.92878912085
183885.1521271335 223487.160700503 -26282.71017796694
180687.3442629762 226734.1667411992 -26571.518673824157
188033.1261781015 224027.18922187318 -26669.76083695453
183521.4164731785 221972.5191881889 -22748.529937189767
180154.8121426765 222362.8285333138 -22573.66198037963
181772.2242050309 225881.29806525522 -23394.653052745627
186091.46324803602 225158.1942314527 -23177.16205099168
186139.3285621378 228520.46965989273 -21152.16426494165
183176.2823734989 229281.9498323525 -24785.37810731293
182222.2378096014 232395.02006601178 -24790.356794065003
186213.29335679353 230003.6718334475 -25426.14533929143
184945.1939901205 233574.0033600514 -24829.621912706953
187777.8446993579 234516.05099949258 -24800.58069265139
180982.4084556421 229434.646611215 -20889.36888709543
183241.89530606198 233873.415219498 -22415.65911461316
180664.3267693785 232626.973111202 -22414.49123918133
186332.24616177488 232208.5946775465 -23039.87268810939
183909.786758593 231727.7638212843 -20804.92121611116
186019.48477478648 234923.8263504449 -22412.605681098023
191635.92071031642 225889.2005137587 -26204.87169476745
189427.987755952 228060.7975719464 -24004.82455787667
190912.7407927411 230972.31935407958 -26383.64626454727
196086.27964844188 226334.9586235048 -25369.89612843276
192731.5121761098 229309.53580427522 -23838.75323010494
190429.30207387268 222466.524125541 -23607.25990727069
189937.6829848671 225677.6361144651 -21530.24300333779
190270.13511325838 229337.2805149973 -20921.76896132643
193118.23947990622 226131.6876133051 -22802.964274703972
196024.6192006023 229414.9196826124 -22723.51053930931
192439.9108451557 234128.9655256394 -26771.24943656748
190667.2266278278 235126.49949722938 -24647.46501672508
194758.6720921878 231172.66857389399 -25982.74844433509
195382.69715562378 234143.11435148868 -26375.44658539611
193591.1510791996 235312.38652496858 -24300.44136905668
189373.45571318473 231692.5306963845 -23453.53957565072
188885.1591783241 235695.0142171434 -22305.04850747329
191817.13116237652 236101.2614278721 -22068.21095020094
193487.5238148835 233003.4938795557 -23245.99529104353
196501.1676361346 232709.2077500173 -20818.360906250527
196666.6673203035 235354.3992004596 -23405.85872726964
194391.060475158 236086.10877876153 -22048.44984710659
182614.51653301468 225341.0840906435 -19624.52074564296
183604.98117135858 228578.3316148177 -17679.31138144368
189270.71176515782 222576.475773565 -19154.89083140741
186807.34637652672 225394.9855399119 -18542.27718840578
181665.6173257098 224846.2091380124 -15626.68475202674
185102.2180938877 225120.9061644549 -15599.576533873129
188863.3941407785 224256.50974725702 -15363.2726265951
187017.8601054847 228926.59076994142 -15800.575962158071
180842.0916760417 231347.2236406351 -17791.65502081203
181624.48827483022 234109.5499377455 -20039.1770599572
187065.3585320024 231933.14774440258 -19203.49710348065
184313.6067327538 235235.2987927235 -20041.48833879917
187136.0275757335 236148.6707129555 -19948.5688470164
184427.4492656271 232553.3744528239 -16390.5818872173
180674.6045938306 232803.3832295347 -15313.311045371769
182605.9626649757 235542.4699711202 -17591.91212343292
181032.4314756291 235576.3101968565 -15312.89950459135
188507.4627712332 234985.1769674352 -16860.85686057594
188317.2436186879 232493.5762101802 -15220.39518708108
185405.4063787527 236545.7384883926 -17586.59413254037
188285.03494836309 237291.69648733598 -17478.85810401221
193007.8026931123 223031.42666614908 -20657.1042267901
192786.4169912347 231568.8704260147 -20244.044452069607
193634.3994150702 227753.8907362176 -19589.16294209133
197008.1834121566 224855.1624477958 -20542.42887879365
192727.2431871589 224117.6462398853 -17668.63838002568
189976.4546850782 227400.49612164422 -17648.34730096387
190441.1388391535 231064.8687433695 -17695.76752328704
196378.0448857873 225533.99892011442 -16408.6653671152
194167.53586509422 229537.66524155482 -16678.80209787101
189970.9766100625 233804.12476922642 -20303.31683071395
190038.1092063391 236755.7955102291 -19782.48555659288
194229.6578753702 234592.84664382282 -19204.220526642468
193359.99395610322 237005.67028314192 -19664.551425778
196410.9526411219 236538.6369430617 -20603.463493164243
195877.1876324379 237388.6203900738 -18437.91158577579
191815.8018324515 234285.2524328387 -16287.352570898172
191272.47611990522 237747.1868812061 -17295.1273083223
194144.9503370267 237915.2930562559 -16914.7418222913
195734.8094017266 232713.9687014091 -16552.74792925733
196839.72439631712 235279.9704921062 -17390.48454161727
197063.2271981381 237760.80545825372 -16450.57362432464
200878.28831042172 174540.2634800247 -33122.32943536685
197978.17432928723 174760.1981808653 -33045.379752566434
199482.5199841108 176743.2220469431 -34538.26327333555
203862.48064488173 174498.140166053 -33107.929776738696
202579.1106825258 176729.74007353428 -34609.18105096928
199260.40095102802 172400.76807686902 -31561.18805203551
198532.8701520096 176395.9045071921 -30908.402057849118
202248.8713332623 172288.3370476109 -31638.007255759072
201952.8348611953 175956.8195660475 -31201.18140265081
198087.9453688548 178958.4402384607 -35935.79138797185
199630.20374944172 181115.04314432442 -37204.56015681786
201154.3374648067 178885.9103938359 -36041.05482117236
202646.06781571978 181273.9955962745 -37257.698792453906
201754.9630339572 179421.89184429118 -31629.6152165282
198296.9735531805 180557.53606693482 -33113.42343148293
202814.35742044498 181111.052004943 -34348.5915713924
204222.2064835888 182261.5979934417 -30875.67220139466
205412.0843988484 176588.9193530796 -34409.42814184943
207002.30284119042 177890.6986707261 -35113.05332380688
208131.7106227306 176170.8768831231 -33906.91134246942
209244.7317725636 177934.8128905935 -34858.81505365637
205244.57078210718 172285.47529355442 -31612.81662702814
206690.45905711228 174305.5340998051 -32848.523181727
209538.5342041627 174182.3121620687 -32501.54099770667
208113.58965440208 172274.20080589742 -31404.211259025138
208217.0687542613 176095.0605813665 -31010.939286001558
204591.1005958457 178965.8493618806 -36001.389386879826
205616.5961377908 181656.4832998818 -37276.69754006357
207598.2081975144 179778.97969133532 -36228.2455477471
210354.0707532214 180258.39941517528 -36049.4974738067
208535.01418347782 182215.48035448982 -37236.54904295415
205919.0997950756 179012.1120287227 -32840.10740505741
206734.4458378785 182726.8183383472 -33897.92160534139
209118.8605446533 179513.6288215397 -31821.01461328448
210488.69568780903 182737.50258139923 -34419.41220177249
198607.0659793829 168489.5372497586 -27951.193665928058
197540.0365815114 170684.91604465502 -29752.19802089994
201546.3512730548 168007.6242285587 -27814.58323602372
203539.9902258071 170251.07980259508 -29883.76012364084
200447.50853595388 170280.10455005322 -29770.1661478524
201639.7592890715 165678.7709433953 -25727.90319012017
199463.4431263444 166370.1086537681 -26139.268444644902
203790.4930111098 166304.7224516387 -26374.774299078217
202260.6810923433 171595.04528075538 -25869.719477099232
199362.7263299783 173080.80559405702 -28517.316060620222
198741.4498090657 180808.9121413478 -28939.12944792653
202995.0322269349 173377.0524808543 -29042.07686917022
201288.46064598 182846.8375186322 -29288.517975901792
198049.63663335668 179034.5132417891 -25625.953282557428
200741.9628683388 175859.9932688974 -26509.46180199583
201567.1449497456 179079.43841456092 -27931.30924501306
206634.6505231205 170343.11469501638 -29847.00102694673
204919.1264554601 168344.91300486 -28166.85778410282
206020.2913078748 173249.4335626644 -27789.59488474009
208027.08583967152 168429.1812445794 -28056.22101908772
209536.1573708071 170395.1055711278 -29588.00680713647
206520.4486024641 166562.63011821118 -26536.827808992013
205909.4277531062 170860.968554872 -25259.14561949338
209424.325310108 166540.0078770133 -26269.82147440516
209335.48820553822 172346.71720433809 -26547.68579731282
205074.0323390659 175956.1117551833 -29562.508818182992
205985.4900968504 179052.07759865728 -28942.2422219416
209432.6483992076 175949.3375776593 -27523.91222344686
207361.8611206371 182188.1910756149 -29608.944794438048
204431.26130309078 178315.9746964829 -25710.8019835395
204475.0522461025 182140.5016336975 -25612.41893633516
206880.2004799335 176399.2215863314 -25372.99827649673
208313.9228939316 179677.8198770061 -26214.11183168479
199887.9888109235 185935.7581478759 -39004.92410698735
198262.3786884796 183606.2407880598 -38107.722398489175
198520.27808261052 188450.14508035232 -39787.65820136356
201217.72790395492 183666.6998156458 -38159.12232807919
204006.51992545242 183807.5122172568 -38121.2831975814
201508.0516966184 188393.1366290742 -39775.42028170739
202839.7451822321 186161.1327170713 -39009.73112464448
199817.1833679966 183918.3213892394 -35567.91183095226
200045.3817618141 188055.6853291273 -35200.18512811689
204145.734423706 184156.3735072776 -35497.15781868422
202443.2608566979 186385.30568649882 -36168.634679414215
197349.7516764886 191206.58333056842 -39974.68955652083
200125.43201334547 190971.76617115262 -39956.17600883579
198954.026129545 193615.4653306246 -40139.95637929177
203087.161394754 190829.03863733402 -39911.76172724295
203316.80326797662 195939.2310669734 -40171.81705080448
201718.8944628571 193450.6862857452 -40096.72268110445
198868.3609161581 190620.9887549375 -37134.75162729466
200788.8809607958 193591.2850233681 -37128.409724690224
202577.00829599428 190311.4282954899 -36223.08926722783
204006.7973334734 194422.61848581542 -37525.28462952915
205154.8622891021 185864.9954889007 -38759.39693955542
206718.7884243332 184274.7420930709 -38088.22989759045
204841.6876072189 188304.56796399658 -39595.81837210867
207320.4002096855 186752.1005086708 -38813.484905882295
207459.9250023119 188941.3021578095 -39427.20708258952
210183.20603801918 187929.3175375652 -38614.41925415228
205064.1880622096 188040.78116713028 -36975.672827699644
209546.5822579505 184913.1058566939 -37940.61102772142
208271.69233436082 186046.6989883022 -35233.53085559652
208190.102126068 189639.6157943884 -36208.25358573402
207612.2999505446 193201.47380088322 -39856.31127395436
206056.6612963194 190793.57081289272 -39834.43802811446
204680.4196234332 193313.0317630837 -40004.576754366935
206273.608617007 195817.1078940292 -39994.31445045769
208953.22412959608 190723.6286010241 -39501.6127004419
210495.2794996727 193101.94527006478 -39295.80158938342
209225.7822948216 195685.4270458377 -39786.0922568497
205963.55227816518 191271.666001468 -37596.78343819053
207170.3778090258 194166.14677764222 -35539.84738115626
210020.3542661657 193078.69154111942 -36816.462518126325
198982.5302062511 186564.5723957544 -32551.977768265573
201113.0215627629 184195.385878695 -32624.909633825468
202346.6618984026 188360.05217873718 -31848.143755123063
198082.5306316427 184213.1610291088 -30213.62051499132
197745.7209411864 187477.5182752142 -27427.42396671985
200695.4291543536 186122.3741692694 -28259.0552519332
198166.5433308472 191854.15741572008 -34131.36930932149
199086.2701459593 190195.99332930119 -30444.50707561397
200097.6390639816 195029.01588194168 -33209.70700005791
201370.2823968462 191768.344823826 -33047.18121877381
203692.12478399312 194112.0671568865 -34143.54700038335
197591.3387403562 190511.785814356 -25362.003081997158
198485.269046832 193043.742921851 -26846.444617734553
203166.8330396807 191261.6553456081 -29632.04608638908
201032.1671261621 190264.6386371122 -27400.943834792142
201266.72220062691 194510.0003755405 -29418.10067784505
201536.3447858273 193528.45304179972 -26057.426614856802
203898.2949023129 185588.82413268738 -31729.79304008529
207176.6297655181 185687.7262794359 -31133.125909398503
205326.0138257771 187395.41414311028 -33854.43202601178
210156.7442048675 183843.8907791523 -31229.2143819408
208050.6548131835 188690.4387321439 -33266.50251817263
210629.9489787598 187741.3148800649 -31667.826890130218
204603.04921320901 186532.92447291908 -28006.87688887967
209240.4433778659 183980.1853890773 -27070.411960117362
208443.65205182752 188094.4465390472 -28065.0901547104
210477.8660200483 188980.404597161 -25457.48772793485
205359.9772426254 190808.7915554785 -33730.093745266655
205163.4078696832 193405.2150630607 -30709.20121191407
206496.6515581157 189381.8702504105 -30485.032040823407
208941.48464901742 192170.2585362873 -32261.429056515753
205039.68691009912 190726.5644509584 -26675.32608894716
204284.8127220787 194547.9510002603 -26754.14221318431
207912.3165850137 192512.9152868017 -26629.50048009736
207987.0435414436 195015.7359233736 -28952.04613326991
210861.8398271404 176136.95723424372 -33512.06774974814
212451.9063425887 174329.23497548178 -32149.593180425647
213795.827895892 176464.39764290178 -33105.14575648916
210804.7596719999 172244.8079246831 -30980.98116500968
212413.6267192818 176290.30281038792 -30147.09511631622
213973.2670476869 172589.0480629052 -30541.08596134976
215492.43460975232 174706.13250336068 -31686.970774052563
212061.3118459539 178352.1934136411 -34582.22501443987
211430.96631508542 182815.6696825716 -37034.75226857068
213202.9159475558 180871.439075317 -35659.67786909419
216022.1369041823 181655.8179767561 -34932.10923382725
214270.56789318108 183528.6711859142 -36492.98814984772
212225.8659512741 180008.53704213529 -32487.060144838084
213427.91597002262 183712.06731313159 -32229.324708655924
214924.8618106695 178993.9453379814 -34136.13158268767
215761.3151033464 180336.02598790888 -30907.51498652304
216638.75027307 177145.82979960841 -32624.985445910974
218288.2480409193 175330.16771748418 -30985.79817977623
219401.784602198 177865.6364221489 -31839.13393813226
216935.3304958894 173026.33264845118 -29910.5928861805
218871.4852855626 178691.2787347686 -29478.19610535139
220916.63956075272 176180.0892377928 -29953.69344081909
221855.5189652013 178872.52189233148 -30564.473046370822
217688.6906001156 179767.7375816085 -33403.977639956254
218953.46607435268 182653.3740379101 -33688.86364674991
220335.8947603126 180507.1491727013 -32267.613184402664
221258.05096233092 182729.0664573705 -32187.759416806373
218753.77516767988 183303.0507822047 -29742.784663645172
222632.55045160512 181595.6456600333 -30735.421249645187
210977.3661170085 168542.1663333076 -27790.436746785483
213915.8145527512 168736.8757029398 -27392.290752304627
212491.62417722578 170561.58193952832 -29220.99556864117
215482.9185415872 170864.8512751844 -28717.730189924867
218233.9078644139 171277.0377633344 -28075.72140807392
212368.00437907892 166668.1479726603 -25949.389149811443
213123.8130139198 173891.11577680858 -26861.66284613409
214569.8443647753 171209.3930110276 -25556.75303130828
216816.107711958 169065.29561181468 -26853.89503353111
215294.06017711828 166897.9680013459 -25513.93521082415
216473.81139739268 173758.0812814509 -25848.854011744388
211654.3809947398 180129.0377606909 -28333.3720380071
215683.47338798072 176592.2361712032 -27781.82183709726
214173.34149903912 182687.3210075431 -28837.52077274287
212087.01009604038 177585.9641407255 -25794.54216321377
214487.8551380623 179602.10489144962 -25660.223105746438
217682.0859717417 179995.87394524927 -26357.20953074181
216857.4451729419 183653.57438962182 -26010.9688056567
219705.8473420069 173588.7592968326 -29059.77048354001
221090.6643821006 171897.0746820611 -27130.12103450959
222261.1060282768 174469.2189166881 -28004.33082301764
219648.73362921382 169540.1846917506 -26152.486161271572
219130.413376316 176806.1491866899 -26150.31854475491
223624.002259049 172761.4012744508 -26043.19859870431
222406.8376543705 170168.92720864931 -25216.06423574188
224643.4729219665 175482.81045596808 -26585.53077472761
221127.0530869298 181365.5741212939 -28675.84372677798
224012.9848631168 180059.6507022577 -28842.125469941588
223254.2147343659 177182.8692394176 -28576.00229966485
224506.2946636739 182967.5456864533 -28877.11385472522
221894.8872150142 178831.3336130043 -25680.8994865973
222777.3671668178 182011.5022229366 -25818.53128799249
219229.4548411523 182156.8594870098 -25209.4190366813
225398.1296363027 178336.4949160592 -26876.10236343533
225928.7680486018 181260.3706094756 -26917.773739348453
212418.3449289396 185534.5370312631 -37542.747339596994
211778.9171580094 190429.0768904875 -38577.40351903861
213286.7200675129 188326.4508629439 -37811.22498238001
215208.5653841404 186298.9738462009 -36907.72771924941
214029.19263368179 190640.38592452082 -37775.60440573632
215867.2519316359 189213.86865080832 -36973.87911339802
212985.3571088497 185929.868822254 -34817.31668937525
211666.6333454295 188910.50686554998 -35375.28045301706
214657.3625562118 187455.52178821212 -32375.383617201478
215575.3380895219 190631.62514085558 -34100.9014792296
213181.65646253398 192955.7681777048 -38229.51121719023
212014.344755249 195542.3046047436 -38763.12241716854
216000.74509909708 192336.85557810988 -37047.97422801258
214736.26028951778 195392.8736039264 -37588.14435509537
213015.1894147922 192507.0308540321 -35165.97845170275
211816.9755511414 194532.95884931672 -32827.95869805807
215501.4169282175 193098.5861189704 -31791.714415787537
215109.7630685379 195225.91643182968 -34394.23482524184
216918.81097991628 184398.7913645167 -35417.151976265974
217814.88393881288 187539.2662216544 -35439.27938069036
218995.5027536165 185359.97713110648 -34250.540561262394
220268.423494022 187365.5263277681 -33534.89983712402
216476.2303725786 183993.6923073775 -32393.99217445173
217653.112408869 186840.8334563976 -32098.339055071578
220924.89370780252 184922.396767362 -32786.350101571086
222398.07404964633 187232.3837173692 -31796.66318943433
217572.2682139043 190385.1474987659 -35897.23496834574
218406.62302388297 192660.543838064 -35223.25592127589
217284.7299274173 195240.305953848 -36098.26854667399
219379.7327655216 190022.4077623292 -34390.552359313515
219505.0878516105 195082.2896725005 -34114.434419280326
218258.87131827138 190984.7367885828 -32626.309956638794
217449.3726538272 195490.5192929132 -32446.293200826873
221559.27649088242 189809.963552162 -32546.381603298883
220587.72762023698 192444.37680317712 -33324.47730132156
221700.0404846988 194917.1117345106 -32130.471749359273
212111.4567286258 186512.7478050036 -28528.981960708803
213095.9523566433 190492.8584464254 -31535.74568933106
215506.5004786478 186004.66313287232 -28456.21247040976
217559.8658571313 189510.29217264222 -29822.888835141668
216246.5550169151 189053.4839733367 -25722.14345890742
214014.2084794598 189156.610279579 -27953.15848331617
218442.4337338557 186497.871345251 -27728.12037161712
219923.4874992793 188919.20704097042 -26264.7488408664
211108.2037954486 191273.43199233472 -28853.646043665438
214666.3464464439 192849.3182058436 -28502.28290140312
211329.652840322 195998.58300216912 -29222.35041368252
219341.1308368936 193278.2564727725 -30153.51695809536
217070.9591615593 195694.827151682 -28496.14530630291
211610.2503694387 193871.6988685988 -26306.563595408443
217981.10888440898 192138.2272837024 -26642.1360562804
219310.9413034579 195614.4205052568 -26095.08800416706
223099.65302804208 184629.9639612745 -30810.79236942533
221020.30584756762 187225.9387925289 -29548.388882863
223859.90148539652 187350.167725089 -30043.20181274513
224932.2014344141 185916.3392362475 -28593.705345565962
225113.1348622052 189109.9751696238 -28276.62511347788
221273.0745442736 184743.9845521847 -27374.97392389865
223332.1571327656 189421.1774062959 -26974.631804175173
226252.9471402734 184209.4476047892 -26803.73219787925
226457.89571055182 187106.88768413741 -26522.35315577306
226668.19832870332 189545.2558124924 -26033.529820426113
220869.42041456088 190788.3975502204 -29580.40285462906
220397.645846892 195971.169764049 -29737.786422308433
223499.9491484378 189698.4929488586 -30492.73015598556
222750.88031373228 192255.0104900368 -31333.663188290077
223543.8827814567 194704.7211245091 -29805.83376321271
221921.518909271 193219.6395692495 -27235.44575436667
224448.0095499493 192033.5671332203 -28921.264707119397
226011.1950042678 191841.465779024 -26678.55185488618
225170.8186620319 194484.6210849956 -27433.91824712183
197771.3122852693 164828.15414395838 -24466.54436094335
200551.5534613686 164266.3659818655 -24319.20112085858
199648.4861515864 167357.3003214646 -22963.55006040572
205521.803669404 164996.0270430514 -25179.87390369736
203402.02987561922 164084.7351694022 -24328.2335737919
205474.1343071377 166963.9249137846 -23048.41028084789
199862.011945717 160853.2742670271 -20644.26587654426
198823.16287247709 162809.9627126244 -22554.57174470683
201719.4006123756 162354.32662861008 -22408.891462037653
204456.0224380868 162015.5343639807 -22142.52415016964
202793.4222081554 160458.2202340863 -20459.912488841852
201964.9667995947 165583.5194309246 -21430.24542269276
198922.2749764192 170215.28966880759 -24301.314131197083
198142.3567340001 173575.0053634539 -24129.466576025952
202796.29919124968 168528.07262434938 -24343.441554758057
203783.5949054549 175181.1875613738 -25143.40268533217
202121.0946476994 173230.5816522927 -22210.20911637745
199743.6720098022 173073.01357557072 -21304.128524438318
201948.5348476162 171124.90246423642 -21337.07090730868
202315.7455771268 175727.8073202335 -22476.97674503771
203926.0858965036 169271.2462828189 -20759.141434742472
204075.3477416849 173929.05809705352 -22627.89718676339
204575.7073776052 171630.1044305936 -22235.42495971267
206050.6091037874 163418.7274250568 -23598.16353094322
209075.289239946 163174.0665743782 -23100.54383232843
207887.7506027774 164768.4348429925 -24857.92118509498
209616.17332115612 166955.08888876362 -23037.14425483097
212096.7288014433 163184.1111116059 -22648.63812655451
210771.0473474433 164710.9064907756 -24480.19120119788
213700.1544270051 164930.35122121382 -24117.11128964788
207193.311166707 161611.31480971578 -21608.90360654056
206044.5131317582 164641.25925349048 -20978.68351119073
210305.5337660754 161545.73002834062 -21196.95658824745
213297.8651885148 161544.37504938722 -20641.9424446391
210196.2553162206 164759.53924656 -20703.05276711106
208784.54582779369 169541.47358558298 -24543.882294835752
208341.69583015612 175028.8070780132 -23049.24464689611
209139.00615195688 172785.8826421541 -22766.531042659983
212501.3610616016 169209.1660043752 -24555.998369431338
211244.24136609762 174715.8647751332 -23132.728992553377
213913.7996164649 174192.7416829218 -22936.16649177168
207309.6706940943 171392.3631750431 -22493.06650657136
206681.80715308798 169595.4175072985 -21258.48760067581
206326.4922810147 173315.6387977472 -22730.083024554
209844.7891372236 170007.4043034326 -21666.249257168398
213106.8044351892 169734.83689047588 -21114.92755800053
211960.81947180288 171915.21495243258 -22615.58342795796
198098.440457625 159355.1125078045 -18817.34616180292
199883.4886777589 161282.1036915532 -17392.71550725466
199116.8182194182 163838.5312625299 -19201.328009823163
200981.5092807085 158904.2353857549 -18698.47706920168
203960.13543752552 158553.78601605282 -18458.91032801909
203224.9056042238 162750.61388608112 -18915.3078088487
199161.32629847518 157390.79247840162 -16908.90979637202
202095.0117500273 156975.9451466576 -16719.05669544204
202153.6847006412 159983.4426287497 -16173.81014675287
199548.8600357186 164230.4224666933 -15861.26268734242
205035.660111173 156684.4783932355 -16413.28931547363
205205.7801329841 160548.5150187205 -16167.418411578581
202499.0768396628 164013.1181378248 -16047.275327410109
199543.6821464519 170335.62015936952 -20309.60238983236
199571.8068511386 167912.18465120098 -19020.1188643315
198147.2600608931 174933.939740873 -19803.987907323597
201668.1608332452 168690.00601385368 -20042.03786979453
203388.0184794179 167272.2543594309 -19339.311190518787
201050.9005984681 175385.5680538604 -20232.249719975338
203931.2670675648 175756.504124544 -20002.146339733532
198202.70427738482 166374.1954900302 -17410.02505160401
199357.6080367905 174704.8622724922 -17169.18862592439
201363.57188312287 166277.8850527065 -18062.36509014609
203994.20626523532 165723.7263219425 -17895.63748750851
202648.85034538488 175162.5949168152 -17400.04906614268
205643.1520862775 160150.3238547752 -20137.62898369298
206845.48265063652 158320.6552112058 -18130.01496607442
207394.7017946939 162622.4327988854 -18493.70580906005
211561.4947022105 159817.1238984415 -19165.68666512393
208598.4010301975 159904.15686271503 -19671.13722976289
209766.6209635715 158151.2444402051 -17669.37644042006
207942.0568488652 156503.88955918667 -16003.840505543301
209678.4461956202 161032.0145940147 -16926.65365726576
212706.0445974615 158117.35078884228 -17151.203058932042
210868.7002654201 156442.3608928094 -15505.59260257205
213397.38100266168 161156.1774930745 -15939.458714295091
208459.53946199358 167394.7009620527 -19760.68986758021
205697.8982829191 167425.40745245368 -19693.75722126096
214243.7673287507 164825.96659843178 -20006.99816802963
211813.1487870016 163056.3137799833 -18400.59067988603
211535.6728831714 167665.3082747085 -19754.569940954978
206950.5764185296 165613.39778826188 -17950.28252871478
205453.4689555076 163886.0019186224 -16115.71748289029
208424.8357507845 163959.0972922241 -16044.964601254058
205536.3653991866 175829.0727086788 -17514.853802856956
211381.9447273067 164347.00752556982 -15728.00964921089
209912.1781726483 165690.2492083694 -17828.50601244311
212867.7135718872 166210.4201046548 -17516.72800926956
201127.9257224315 179003.49238169222 -24113.79844140794
199262.2509847899 176510.5107317931 -22461.804989518238
199973.3828802688 182641.1394680856 -24685.65052447838
205386.391510186 176247.2057799266 -22624.1450611198
203715.7073495163 185585.5861172966 -23307.13685327376
200648.77680296497 179206.8526718371 -20516.84263528474
198596.30002601468 182100.1447982571 -20693.914149807562
203276.8358654605 178252.1173907714 -21968.341034700137
202689.2888295006 182026.422915539 -21340.60059510441
205935.17705544308 182713.1364402034 -21004.73581472378
201718.3698205766 188682.6152099315 -25139.392032508338
199237.0389555842 187195.4176147553 -23638.37625064469
199087.891642434 195194.68125880498 -25052.35015889597
200398.04697991972 191743.5511368103 -23361.20762893172
200719.1021316428 194754.6803025323 -23052.03857506502
204672.2623152327 188855.5145254076 -23734.658990986427
203262.3401154315 192222.6163029101 -24042.79125101429
205716.6953040616 194606.5087464169 -23642.95088550499
200192.75182108622 193533.2778219499 -20578.75057842123
198155.5794023665 193764.7294022096 -22605.66212734162
202175.2921373361 188716.9461323971 -21804.930459357318
205468.2392139601 188953.71594776819 -20508.88458143208
202721.50686249652 194915.2935478648 -20988.944481618808
203714.7535767097 191997.0209167419 -20964.11619834911
210799.3777873342 180399.2041788483 -23751.90524227103
210554.8076349895 177536.3799820444 -23040.219170405268
210844.33056301047 185162.5435952406 -23872.11752815259
208166.1263331288 183191.6852685677 -23269.08349731043
213825.70065167663 176854.7676687351 -23343.85874751691
213428.5878108456 182687.8182657875 -24800.665275192037
208121.5744696781 176931.42074871922 -21952.96322300443
206878.53412189533 179412.78940527182 -22353.85885352375
213297.2259310442 178921.6038270751 -22385.87210407983
212461.4433826259 182098.7974747945 -21475.18442634848
207123.2661010023 186650.3454753762 -25148.952844761658
207292.93767268088 190687.59234055362 -23268.77989136253
213909.51614684612 186841.1657108385 -24571.492594780248
213794.1765621768 191425.3194725166 -24648.211230915538
212463.14179488202 195763.4376253178 -23259.752988216507
207643.31441514098 186941.52186749 -22030.57470148123
210627.8512222543 192698.6751061462 -22193.08583354463
208104.99209274532 195633.0684049021 -21527.80923251549
213258.3671996495 185607.1431857022 -20991.72576507896
211150.1853650376 188493.3825303969 -22490.57316533817
214026.67276682588 189971.8140724519 -20527.01893268328
198055.568840858 178027.5091007955 -18775.95343576673
200361.7516297494 185714.2404904942 -20283.806908365532
203681.5312740879 178872.36337829838 -18940.946260379347
204967.2111739734 185544.57465919212 -18848.26478791037
201783.3225964586 182601.0062915858 -17881.2650317736
200425.33520501602 179324.3697527003 -16836.20187447299
197935.5970543465 183257.42867911962 -17251.68419290593
201200.02269383348 186566.35865519082 -16262.184998895329
204242.53223919272 177835.8995517994 -15776.463147032351
205420.6308705965 181844.5434748416 -17039.03308074208
199180.6690686013 189917.5693657455 -20136.84935633286
197429.8062981127 192737.5860301793 -20018.94889993839
199507.7095365448 192333.8439454278 -17995.64261438173
201652.4724002204 189795.36815227979 -18205.67100572645
204586.0815029912 195125.554830124 -18625.63249628285
202173.10139753998 193473.7263258549 -18420.35036880198
198122.00031824928 188446.4227752396 -17164.38421513361
198795.3630609084 191257.90671950532 -15366.69595147646
204843.90705504522 189726.2317181957 -16471.775898378168
204072.832756153 193576.9839724856 -16189.26318501865
201567.4295326957 192155.2811378965 -15886.957150451099
206742.1231976406 176472.955362824 -20074.34405082892
206729.842491227 179193.28196835032 -18455.17730189761
208592.16073528441 181953.6493064895 -19403.53513872948
209616.6820419362 177522.4232350748 -20089.80003553813
212329.4257054482 178715.2283849654 -19893.00958343243
209865.1301100413 185243.2383076745 -20193.6633860544
208365.8027256423 176727.09146612827 -17595.84836533482
209624.9644073332 180694.4204792795 -16135.001767306348
209890.4921288859 185430.05578121362 -16882.960696983042
213911.4767760195 179112.2528083689 -17816.06428172939
211139.60043343992 177795.24741811532 -17650.64475518635
211927.90656367398 181483.0119948142 -18280.88390542268
212977.7546193736 184166.0972779501 -16786.668031901852
207631.8080733147 188245.9767009375 -17805.710032725452
206331.1543903957 192396.6287271154 -19501.925379914832
208742.097112496 195210.2903903673 -18259.07401733734
210008.5836723752 189614.9715032225 -19676.02397637514
214193.2194889278 187249.6856646798 -17690.662565576753
212045.9573916503 193583.5052157361 -19033.416264606418
208431.0614464132 192395.0967254781 -16156.61644699988
206308.65141085142 195470.63672594939 -16279.031639608342
211159.8507324275 189850.22893202238 -16173.824644033719
214098.702735048 189857.7022634441 -15341.16547537176
213943.1768463073 193015.5601051736 -16228.55976898103
218185.5965696054 167251.38770657152 -24945.0247760149
216639.7460025441 165211.7058513166 -23544.06195326578
216865.4295556726 169894.3255397197 -23770.42087358531
219463.0564254763 165651.91486121638 -22844.7323773388
220989.9722859033 167793.9051856726 -24138.03099478136
215032.16406092868 163349.1978561264 -22125.73133517529
216203.5501122591 161776.83279573199 -20110.55268552968
215937.91259260208 167042.4851435391 -21865.49963906992
215401.6002930449 169780.11311228518 -20331.811607884098
217880.3150478655 163687.1021547929 -21531.96585248768
220677.6948677612 164111.52986097967 -20715.4654255333
219227.1397831108 168597.36382710072 -21128.32748319487
216812.8162767146 173467.757506005 -22499.840753837252
216054.7901098764 177959.0334209082 -23091.307026959603
216160.7117495843 175983.5541526619 -22929.72013784268
219213.91753852752 172090.260624875 -24366.41849992394
218784.6838195434 175691.95117618982 -22537.8398938438
218249.672676652 178031.38912760472 -22799.17806315775
220691.5936901934 177990.12625333588 -22368.66769141751
217287.87788467 171337.0391802701 -20654.40113789054
214896.27385028912 171574.2306015355 -22048.357672481612
219287.8740904108 173318.5080605111 -20943.29205048033
221256.0537137184 175514.924977057 -20894.88199301206
223633.4238199099 168575.5191854033 -23046.93251362687
222220.7102801377 166256.4694772714 -21931.75854769213
222095.2817586839 172188.4183171005 -22732.49869082122
224929.04768981962 171081.0875984074 -23958.18742763969
227061.2707791291 172214.1182421871 -22332.29726041987
224799.0671641689 167033.1811208411 -20780.35095154765
222510.47105352549 169222.7557727762 -19985.46244666917
226068.1178598075 169568.23501982918 -21660.83404369402
228192.77077490618 170751.4029731835 -20025.318241947618
221453.5637373072 174982.09424184778 -25072.169636616032
223908.1859951794 176343.5377781032 -23481.375137391547
226015.9420088457 173768.04877757412 -24588.19572213319
227873.6056289771 175025.1921816755 -22677.69776458626
226794.678273973 176617.6924740054 -24883.11109071948
228441.2675353173 177872.8402124354 -22755.02125561678
224761.50990664912 173904.6035470181 -21131.25318828389
226356.661510295 177053.1775009724 -20856.40600655067
222951.56885610838 177928.9804097054 -20524.40845549044
228899.39667067592 173455.2531434017 -20459.609754818077
229462.1456346052 176274.93979810772 -20586.40055866553
214462.36742573252 159928.0942789164 -18666.46037282452
217348.5507768205 160097.8295690453 -17992.05033977675
219055.0924088466 162062.7577858648 -19371.40672720437
221805.3985712116 162493.3468581691 -18491.8725172027
223391.6239740545 164730.5570630315 -19720.5186355928
215595.0688977166 158215.96441159182 -16531.40797684168
218445.7927483706 158477.5094637407 -15759.414442267029
215654.57497985152 163152.84735681608 -17257.79201784452
220183.2861740615 160411.0742691536 -17202.338884231678
222928.68710513652 160940.87885459771 -16224.94038911187
219271.2350359979 162902.4689212089 -15388.68693825853
217742.5732907516 165628.91713101589 -18909.18355756511
214306.85890529488 168024.6281265767 -19140.64731825016
217153.7061775038 168973.4844449197 -18453.053873119567
219643.1412744892 171098.40771323 -18958.48860820571
221601.21941758128 173171.23318803392 -19246.050478307938
215643.6191471538 166817.26250553707 -16776.34996354549
218398.5973904948 167657.6357288687 -16023.962205518628
220989.52735322522 165806.8656359162 -17717.53457928339
219737.66571136183 169447.2726161464 -17022.23397642587
222147.5863323443 171101.19056695272 -16684.96781753429
225935.633510569 165520.6768323659 -18492.80113093469
224508.4938662435 163156.4233189305 -17456.92524846768
225396.83441312148 170647.51405442852 -18280.06384158245
227196.3789038294 168062.9439819564 -19364.429066293153
229289.9855759707 169214.4086121566 -17680.47037935157
224147.2724158981 167280.7377300377 -16844.06192887067
227006.46633389598 164064.5671937431 -16138.059425527028
228069.071255995 171805.5347454819 -15769.076475638069
228289.8132590756 166576.0900899806 -17057.338646767123
230237.099234206 167952.1415330366 -15262.50697483175
230972.6544036197 170664.6041624472 -15850.12657832045
223908.2191474852 175795.7865413993 -18640.84033280611
226856.3495032143 173700.0079383216 -18347.43430412479
224906.7895181736 177928.0059315458 -18284.19847021965
230491.60636804232 174706.7309099622 -18411.650009742112
229970.1690495689 171894.38136195342 -18178.82721151389
230927.68430951532 177501.542926186 -18282.09875255929
227967.60322650828 177714.5117348294 -17874.50890531894
223548.3907644749 173505.4893323698 -17351.137869707538
225342.6263984804 174887.10203015633 -16105.35994419446
225870.1405954476 177099.7833921958 -16392.04938701326
231450.6917311583 173294.1432894465 -16195.373033654128
228703.67407307218 174975.7171123577 -16154.87792770773
231894.3526413223 176031.6391159452 -16022.492498893102
214937.9554294681 179557.97430756458 -22893.60651753599
216566.5770498719 180804.542035505 -22767.54367770285
216619.7510435752 183843.298917265 -22521.48726219898
219446.69908720668 179910.5596889695 -22680.91871820431
218384.7787928731 181867.26462160458 -22645.73100038198
220214.39709294093 185201.3842815675 -24337.90425809333
215070.8473173043 180028.0340077035 -20718.76540019256
217862.9204814205 181776.9415061803 -20436.402279117872
222042.9083754227 180522.0952371039 -21660.91494885013
220197.9002177089 182949.0729016676 -21966.281343459043
222595.9042223243 183211.637984286 -20278.44335076402
217588.14287584202 186710.5837798767 -24453.87814610973
217686.2323718997 190181.9831510074 -22698.03688250764
215992.59419841893 194442.84245737898 -24695.29117702989
221495.4126765194 189162.7760580485 -23110.98041369759
219589.8733549418 192870.90273983259 -23220.15668271586
215927.8188149511 187069.1780988421 -21606.41479926965
218643.7808948289 185652.9384874537 -21355.467375848282
215540.7180625828 193126.14621664138 -21230.91517873372
221675.1410473879 186215.7952037566 -20788.828078740353
221566.4481583556 190992.0757912494 -20213.35460029466
225395.8170999783 180323.7766472584 -22983.406170643393
224075.63314974878 183768.58558059458 -23964.848459032768
227333.9469599392 179536.4873807086 -24950.8212533325
228781.2843442366 180821.9568010972 -22699.42754958376
227669.6334062226 182445.0302666177 -24869.40462199374
227870.5589975432 185391.45117283642 -24655.57265915237
228962.9073930376 183779.4886381818 -22489.98940150064
226580.45391680862 184276.8267935309 -20154.65754382155
229857.33700527728 179161.47525778998 -20485.466486877373
230038.3689501153 182122.01476688738 -20344.1968971399
230071.48377188822 185083.78116551528 -20128.180331752792
223673.813340475 187132.02022153419 -25189.57061203718
223658.0758194564 194115.553493694 -23479.21652666981
227849.44215231642 188290.559007779 -24410.976838263552
226870.4179596515 194216.3864665681 -24955.55413349075
227718.8020392787 191346.50482039351 -24054.187969607232
225572.1422146727 186914.2836221797 -22894.73491140684
225450.65754406678 190821.6761369005 -23081.85140947334
228939.6212462088 186744.9400231545 -22314.50022365059
228829.2162858102 189568.63637933612 -22044.56368996915
228080.5926544513 194018.2893232496 -22457.83182427142
228813.8966066013 191928.795618924 -21464.76218810027
216504.6684092729 180400.17128483029 -17668.29733687491
216015.5428883551 183683.3972811363 -18976.36621949956
220155.3080339125 183254.96017133488 -19526.80845337922
219729.4574055189 185566.49378741678 -18050.10480796411
224302.4956542483 180455.614348387 -19729.00094191507
224482.5963775877 182685.55334758 -17770.31237332378
223658.6500922635 185760.9844381318 -17850.19677116268
221694.5860950285 183500.7635522813 -17732.36064208802
215543.670749643 182248.83733238722 -15573.22249093856
217345.60541272382 184880.3918228336 -15547.11655788217
219057.5894969928 181934.92782492298 -17617.82918318855
220739.7969868583 185176.7891609552 -15507.27661728071
218109.8079543086 188044.33452297808 -19355.26094900978
220054.87974709918 195002.92895576722 -19598.50963882338
217859.7030042141 191918.5603133706 -17990.99551515731
224519.27228998722 192923.6529062757 -20008.85802329288
218216.3839806777 188521.1080664233 -16078.648680166829
219995.9286819307 194443.8831676297 -15303.40699269237
221496.3788025709 188565.3887292174 -17206.723920358472
222872.44784055452 192467.4252008225 -16978.95743225891
227310.1720097862 180493.6180892547 -19958.95272570881
225584.6146931908 180055.13878168192 -17405.61751538853
228252.5128583706 181941.481827121 -17374.67498347636
231141.3985197536 180460.4049892433 -18144.0356005114
231200.216480342 183422.5479363813 -17940.46769539679
231137.904767683 186380.1867896613 -17678.20690871147
225827.1069391636 181918.2775925658 -15375.64706660401
226756.3024773204 185408.91798551418 -16260.125620036462
232105.913056702 178793.90644062558 -15891.75065212219
232177.6600342967 181759.3165220242 -15682.534034764441
232112.6498888607 184717.6929153959 -15428.31541744623
226112.6917042231 189133.304770381 -19441.22095515661
226512.3964695086 195009.6000967883 -19638.685547549532
229982.26639912018 188039.67023527992 -19853.37833313429
229787.40768812032 190913.4975832761 -19585.1066428209
229367.2005225877 193908.97756053868 -19602.17741593731
227367.11533318931 192107.8757505685 -17521.08082902717
224944.3797116197 189297.0481456012 -15921.000398398039
225143.8480481337 195243.77512207808 -16474.88473734953
230972.119610827 189311.6534181271 -17398.33892960056
228871.695664794 187997.2518677165 -15504.83998153557
230737.32238821028 192240.82144994522 -17082.1662487701
230455.9781831711 195190.6686288171 -16697.33431894938
199345.2641871556 198500.58753373672 -40445.13469468059
197800.6297856696 196242.81585689168 -40322.2206614178
197979.6720156685 201337.2176646456 -40625.91469178169
202063.0676263459 198540.5021514071 -40314.17853234973
200385.57060637852 196043.19992085767 -40279.26116735415
200708.0963990755 201233.6026556479 -40431.6508744972
199886.43014318252 196746.38935000802 -37425.47596850364
198850.1779326192 200458.2008409209 -37120.345391195675
202259.2609478195 196977.1241034179 -34791.43674537948
202146.00951435778 199262.83119626952 -37604.80594102927
197970.2942967363 206501.3909730448 -40519.02124875258
199262.2870860988 203845.7023400565 -40516.731020752
199406.3162293781 208981.59796625198 -40314.30655379714
198048.34732400058 211624.50433021248 -40242.60567177836
200784.1494611234 206338.1736211485 -40339.119401404554
202159.45347825807 203708.2643525766 -40289.66391806558
202344.3027920383 208830.1136228512 -40143.16391309178
200969.1886690218 211486.9386481343 -40101.744867159665
200265.1625141502 203446.5618635719 -37926.36490765424
200172.0448038458 209283.2427565128 -37515.314525519185
198774.1256285974 206976.77168908832 -35310.41834376493
202288.1047880663 206032.0531895467 -37308.13928567267
204903.97957058 198447.4544653957 -40114.757482799214
203532.654547081 201077.9373339191 -40213.92788254948
205115.8880893444 203583.6847600892 -40057.25982369895
207854.6913737529 198317.9168025323 -39893.199308109484
206489.1735894537 200953.3750608533 -39983.08897319389
208072.3450643322 203459.10836254832 -39824.85390450068
203411.3117573795 203043.7912370055 -35291.28469192542
205449.8156604624 198448.8418365473 -36961.50847455891
207034.2620710305 203188.2110429648 -37112.588700815184
203741.34281304778 206213.7681673111 -40115.82473579646
205266.11279332518 208633.5319647566 -39937.1102286907
204272.3098300787 211662.0279536546 -39902.27908377962
206651.6106479303 206012.8702768562 -39892.0997641657
206803.2458086567 210660.968217954 -39762.48978603851
203695.2943885422 209341.0265178777 -36370.216430824796
205568.68573875472 212045.0930052766 -37038.31572428948
206018.5434617294 206938.5005289705 -37398.094977574605
207965.4992602214 209549.7511686784 -35599.39779442882
198588.4472252453 197786.06419493328 -33584.25094178949
198491.1538807037 200584.8635283245 -31251.45127183194
197751.989663349 203518.2966624526 -31745.28248365776
200656.9394174337 199927.9336115979 -33697.6446082678
202420.9027224773 197357.49145058572 -31333.373218195822
199784.1699302499 203747.27720041698 -34236.238128618876
200431.2249504717 202779.22663432828 -31303.113794374192
199328.1469368673 196442.6392636547 -27267.423149620972
199008.28931944902 198249.99559097548 -29554.126405947572
201404.0035087357 198072.5179912187 -28055.97864720418
201123.08052251648 200231.39764966312 -30006.188281582752
197346.3922738049 205850.96184743842 -31962.26147135803
198987.5540948072 208445.10572802968 -31514.45692141471
202292.8585244849 207292.9904940158 -33723.50099333139
199568.8097120052 205406.606367002 -31585.29022234389
199629.0816762142 210454.326108654 -33977.529132452284
201309.19247195747 207279.0587555575 -31269.98719582039
199684.0571124709 211864.7183389534 -30435.3879002532
202274.6824723144 205057.9888718609 -31102.99105424898
201839.12811659742 209790.3560269842 -30661.38962728182
202232.8957867321 212137.9429308109 -28838.82076220382
205724.685474712 199780.8055998604 -30781.050191602302
203628.59775718578 200057.49270115042 -33170.98750122316
205840.2581684814 196840.1011600247 -32595.37494757125
207329.7964757585 200152.2123861872 -34462.32585851335
206644.9285901715 202909.7594652783 -31700.10045290047
204199.1643985734 196662.2024708084 -28798.12523467095
203418.5610377731 200114.40679171743 -28182.65233205524
202950.4866997058 202517.3678700421 -29799.71308727871
204955.0705469229 202632.17543414148 -27707.18050365616
207407.7983614429 197955.3400080388 -28504.63976905032
207243.31709226602 200844.2010716038 -27459.59869257452
203074.196459563 211920.5122592208 -32882.79415351969
207065.5253516421 206491.9671486318 -34225.04148523153
205560.0881419784 206161.121142185 -31520.367781231533
205610.46377545758 209597.077666016 -32188.084988033992
204328.6083211164 204985.1533173772 -29057.057556228523
205376.57282693518 207478.6127601686 -27884.48447401137
203349.7797658407 207559.15608079202 -30006.30743024544
204144.05930661998 210033.57430872752 -28640.63618578352
207393.51221392347 204759.20565968702 -29227.464900930252
207990.4020328579 210527.23269947048 -27876.39552867283
199586.04440081312 214106.2204132865 -40017.723254212295
198221.92863492278 216727.5213187141 -40054.70648859256
199714.00013300372 219158.1904376055 -39282.96295507364
202388.6087782071 214100.4274525406 -39890.003900277086
201140.8286801609 216545.88110845588 -39808.56284667433
202501.9106390197 218982.3743326313 -38772.28933765676
198565.6337344968 213365.6692798984 -36534.80474361749
200299.56300253677 214793.5766960072 -33905.50398375769
199352.4959573621 217644.6123437855 -37248.12546218036
202187.2255695455 212401.8138161335 -37153.345439600474
201185.5062734471 218044.49610116569 -34884.156151196185
198226.6124301025 221616.00773410668 -38534.96168213062
199651.5151005574 223904.6043682115 -37344.990059924094
201131.9884688066 221437.3484520365 -38086.21215872532
198631.774560949 220782.2246976658 -35046.63009450161
198015.4439465897 225873.863717195 -35903.040989816756
199326.91625609872 227750.5830590817 -33974.22515570268
202470.94996337072 221235.8984798523 -35238.29572137688
200978.4710373526 225817.6240751396 -35468.89483173042
200417.1971425799 224048.8119243295 -33938.28311595847
