1049
222.175 176.593 -20.3114
222.727 176.555 -20.3627
222.988 175.851 -19.372
221.821 175.978 -19.3329
222.159 177.617 -20.5563
223.07 177.589 -20.7188
221.444 177.489 -19.6435
223.496 176.924 -20.0731
222.205 179.025 -20.635
223.082 179.045 -20.8974
221.483 179.172 -19.6939
223.84 178.096 -20.5094
224.305 177.611 -19.5436
223.912 179.186 -20.5962
222.461 174.925 -18.6813
221.913 174.981 -18.6711
221.566 174.638 -17.543
220.857 175.702 -17.8144
220.633 177.422 -18.323
223.396 175.182 -17.7529
222.494 174.535 -17.5471
223.955 176.419 -19.0054
224.367 176.129 -17.6697
220.659 179.23 -18.3429
222.365 180.123 -20.4812
223.1 180.232 -20.6467
221.966 180.807 -19.5017
223.819 180.184 -20.4589
220.958 181.079 -17.8714
224.563 179.281 -19.6027
224.214 180.843 -19.4653
225.217 177.636 -17.6878
225.39 179.389 -18.1174
225.204 181.123 -17.7893
223.105 181.141 -19.8188
222.259 181.94 -18.8283
223.111 182.123 -18.9271
221.857 182.421 -17.6263
223.954 181.944 -18.8035
224.339 182.407 -17.573
222.547 174.106 -15.793
221.151 174.066 -15.7007
220.52 174.968 -16.4376
223.617 174.752 -16.0234
219.756 175.519 -15.5713
220.08 176.14 -16.9023
219.903 177.474 -17.0531
224.629 175.676 -15.8573
219.914 179.147 -17.0581
225.541 176.957 -15.7907
225.983 178.382 -16.794
226.24 178.162 -15.4919
226.106 179.496 -16.9049
220.118 180.542 -16.9205
225.996 180.655 -16.8353
219.789 181.224 -15.5802
220.609 181.959 -16.4673
221.33 183.334 -15.7327
225.537 181.939 -16.3829
226.267 181.227 -15.503
224.802 183.236 -15.5955
223.103 182.797 -17.6501
223.076 183.64 -16.0175
161.419 217.557 -17.9845
162.158 217.737 -18.125
161.964 216.872 -17.098
160.929 217.036 -17.005
161.52 218.105 -18.0608
162.423 218.764 -18.2629
161.087 218.091 -17.1929
163.077 218.072 -18.1429
163.24 217.586 -17.2599
163.862 219.133 -18.3297
161.832 219.097 -17.3416
163.12 219.861 -18.2275
164.397 220.588 -18.4012
162.742 220.169 -17.3488
161.314 216.144 -16.4323
160.74 216.2 -16.3644
160.25 215.84 -15.1276
159.982 216.896 -15.413
160.526 218.231 -15.6319
162.395 216.384 -15.7399
161.392 215.796 -15.3274
163.579 217.163 -15.7373
161.396 219.363 -15.8873
162.37 220.493 -15.7901
164.326 218.559 -17.382
165.129 219.87 -18.299
165.464 219.536 -17.39
165.992 221.049 -18.5752
164.676 218.172 -15.9243
165.806 219.195 -15.8125
212.761 218.287 -18.0659
213.149 218.28 -18.061
213.446 217.957 -17.2173
212.742 217.893 -17.1935
212.326 218.99 -18.1823
213.044 218.887 -18.1405
211.975 218.59 -17.2732
213.564 218.826 -17.226
211.317 219.474 -17.1714
211.671 219.488 -18.0293
211.613 219.996 -17.9648
212.224 219.85 -18.0831
212.856 219.57 -18.0582
213.106 219.851 -17.188
214.074 217.212 -15.5864
212.759 217.151 -15.4438
211.657 218.205 -15.7858
214.303 218.69 -15.5796
210.789 219.311 -15.6081
213.588 220.145 -15.6299
163.894 221.117 -17.419
165.3 221.661 -18.4008
166.561 222.169 -18.8582
165.098 222.053 -17.4262
163.539 221.501 -15.929
164.804 222.497 -15.7675
166.481 220.664 -17.5166
167.347 221.977 -18.9558
167.543 221.808 -17.6846
168.438 223.125 -20.335
166.822 220.35 -15.971
167.808 221.551 -15.8643
211.18 220.51 -17.0011
212.13 220.648 -17.0736
210.247 220.691 -15.4177
211.011 221.394 -16.3795
211.567 221.436 -16.4259
210.506 221.863 -15.1665
212.589 221.143 -15.6974
211.641 221.878 -15.2998
166.616 222.706 -17.6349
168.438 223.125 -18.1475
166.512 223.313 -15.7963
168.438 223.125 -15.96
169.461 223.808 -18.8677
170.128 223.986 -17.5061
169.124 223.953 -18.9007
169.735 224.311 -18.5252
169.194 224.31 -17.6139
170.347 223.456 -15.7446
168.686 224.926 -15.663
170.564 225.083 -17.4816
171.696 224.571 -16.9284
172.069 224.142 -15.6204
172.809 225.749 -17.4037
169.998 225.642 -16.3226
171.51 226.363 -16.9275
173.24 227.088 -17.4186
170.795 226.769 -15.6053
173.675 226.458 -18.4867
174.314 226.751 -18.8943
174.274 226.439 -17.6351
173.947 227.009 -18.8298
175 227.5 -20.335
175 227.5 -18.1475
175.589 227.899 -18.8756
175.861 227.837 -17.5742
175.288 228.065 -18.8365
175.671 228.192 -18.4672
175.057 228.23 -17.4457
173.402 225.05 -15.8965
174.943 225.934 -15.8464
175.572 226.953 -16.576
172.385 227.672 -15.8109
173.941 228.017 -16.8964
173.588 228.422 -15.554
176.666 227.447 -15.6296
175.864 228.303 -17.3327
176.513 228.525 -15.3991
175.064 228.733 -15.5853
221.204 173.109 -13.4689
219.773 173.634 -13.1976
220.146 174.271 -14.8964
222.911 173.622 -13.6668
223.797 174.433 -14.5084
224.779 175.152 -13.7667
219.373 177.352 -15.5742
219.382 179.273 -15.569
219.105 175.355 -13.6995
218.808 177.289 -13.8521
218.815 179.314 -13.8184
225.762 176.559 -13.9077
226.469 177.892 -13.6576
219.117 181.356 -13.6428
226.498 179.595 -15.4469
226.827 179.532 -13.5669
226.727 181.234 -13.5332
220.206 182.702 -14.9842
219.781 183.307 -13.4445
225.892 182.474 -14.915
226.241 182.72 -13.4269
220.745 184.082 -14.1845
221.862 184.567 -14.6332
223.023 184.694 -14.7167
221.35 185.305 -13.1585
224.116 184.426 -14.6227
225.356 183.897 -13.5519
224.34 184.995 -13.271
160.241 215.172 -13.4711
159.233 215.543 -13.1808
159.431 215.802 -14.3901
159.3 216.369 -14.4787
161.763 215.349 -13.5337
162.71 216.08 -14.3773
158.992 216.637 -13.2704
159.537 217.361 -14.1838
160.026 218.639 -13.6145
163.974 216.75 -13.6772
161.08 219.634 -14.4441
161.963 220.876 -13.6966
164.96 217.884 -14.4714
166.204 218.801 -13.7091
214.369 215.837 -14.4353
213.418 216.067 -14.4885
213.195 215.588 -13.194
211.956 216.853 -13.5329
211.251 217.945 -14.3715
215.22 216.868 -14.5014
215.293 215.805 -14.0952
215.126 217.994 -14.5861
210.253 218.9 -13.5937
214.729 219.304 -14.2462
215.543 218.455 -13.3195
214.086 220.681 -13.5974
163.22 221.799 -14.4662
164.243 222.957 -13.6714
167.139 220.034 -14.4894
168.367 220.971 -13.7188
209.777 220.22 -14.1747
209.163 221.03 -13.2399
209.535 221.289 -14.4713
209.642 221.977 -14.3732
212.914 221.551 -14.3066
211.969 222.578 -13.3881
165.698 223.697 -14.3671
167.179 224.362 -15.0412
166.455 224.706 -13.5369
169.162 222.259 -14.4806
170.673 222.687 -13.7402
209.317 222.48 -13.0675
210.436 222.779 -13.6405
172.749 223.697 -13.7094
167.949 225.645 -13.7807
169.508 226.189 -14.9805
169.148 226.682 -13.5226
173.76 224.55 -14.5119
175.131 225.003 -13.863
170.723 227.666 -13.6654
172.028 228.123 -14.4119
173.051 228.839 -13.6427
176.228 226.418 -15.0561
176.899 225.949 -13.5365
175.004 229.286 -13.6201
176.795 229.212 -13.5235
177.486 226.961 -14.1948
177.795 227.838 -14.5275
178.595 227.495 -13.2082
177.708 228.446 -14.429
178.39 228.729 -13.0144
220.681 172.409 -12.382
219.998 172.615 -12.299
219.762 172.33 -11.0403
218.805 173.515 -11.2503
218.384 175.323 -11.9663
221.681 172.527 -12.0622
220.981 172.02 -11.1149
222.868 172.853 -11.4315
218.191 177.261 -12.1663
224.036 174.14 -12.9466
224.261 173.895 -11.3323
218.202 179.284 -12.0673
225.428 175.241 -11.52
226.011 176.381 -12.3255
226.664 177.453 -11.5103
218.389 181.388 -11.5576
227.142 179.432 -11.4202
227.086 181.305 -11.4126
219.057 183.376 -11.4379
226.537 183.008 -11.4926
220.231 184.623 -12.6922
219.827 184.946 -11.2694
225.71 184.317 -11.6783
224.66 185.606 -11.4181
222.986 185.627 -13.1791
220.771 185.91 -11.4456
221.838 186.265 -12.2798
222.593 186.37 -12.2903
221.678 186.641 -11.082
223.567 186.115 -11.9733
222.959 186.733 -11.0982
160.085 214.478 -11.6542
158.911 214.974 -11.1828
158.568 216.407 -11.2938
161.562 214.536 -11.2582
159.151 217.69 -12.7724
158.854 217.738 -11.2421
162.962 215.733 -12.8722
163.058 215.366 -11.2618
214.608 214.784 -12.9505
216.069 215.054 -12.8556
214.092 214.206 -11.4409
212.951 215.076 -11.4144
211.808 216.263 -11.4459
216.203 213.86 -12.103
215.31 213.89 -12.1723
215.081 213.5 -11.0413
210.765 217.373 -11.3009
210.94 217.656 -12.861
216.011 216.73 -13.1542
216.92 214.412 -12.0494
216.885 213.827 -11.8253
216.866 215.424 -11.8872
217.384 214.729 -11.002
216.833 216.713 -11.484
216.235 218.408 -11.4044
159.626 218.925 -11.4162
160.784 219.907 -12.9092
160.55 220.108 -11.309
164.265 216.366 -11.4347
165.236 217.602 -12.9294
165.439 217.378 -11.3169
215.129 219.727 -12.7916
215.486 219.861 -11.2778
161.63 221.194 -11.4481
162.925 222.086 -12.9234
162.701 222.31 -11.3158
166.532 218.476 -11.4529
167.443 219.74 -12.9393
167.691 219.52 -11.3248
209.852 218.573 -11.4059
209.01 219.786 -11.2183
209.359 219.874 -12.7544
213.237 221.908 -12.8127
214.511 221.061 -11.4146
213.492 222.192 -11.2652
163.871 223.347 -11.4407
165.193 224.083 -12.87
165.038 224.434 -11.3053
168.841 220.592 -11.4701
169.738 221.714 -12.9668
170.149 221.516 -11.394
208.541 221.178 -11.2423
208.59 222.64 -11.1911
209.446 223.438 -12.2961
210.236 223.635 -12.4571
209.122 223.706 -10.9995
211.159 223.522 -12.4072
212.344 223.104 -11.3215
211.249 223.863 -11.0713
166.463 225.509 -11.4638
167.622 226.092 -12.279
168.544 227.016 -11.5377
171.348 222.364 -11.7208
172.971 223.119 -11.5668
174.253 224.15 -13.0094
174.853 223.867 -11.4076
170.099 227.976 -11.6968
171.688 228.5 -12.9281
171.399 228.793 -11.3886
175.725 224.609 -12.3071
177.136 225.073 -11.609
178.202 226.461 -12.7374
178.784 226.042 -11.2669
173.072 229.455 -11.4948
175.037 229.988 -11.4921
176.939 229.937 -11.7225
178.672 229.62 -11.1617
179.276 227.018 -11.9258
179.534 227.882 -12.2729
179.992 227.572 -11.0636
179.436 228.502 -12.2127
179.801 228.714 -11.0026
158.343 165.513 -11.7205
159.452 165.247 -11.7112
159.602 164.264 -10.7244
157.852 164.972 -10.8079
157.771 166.568 -11.9765
159.287 166.39 -11.9347
157.114 166.004 -11.3692
160.397 165.145 -11.5392
161.165 164.552 -10.5766
160.272 165.853 -11.6394
155.917 166.66 -10.7662
156.639 167.095 -11.7398
156.489 168.084 -11.8136
157.629 167.986 -11.956
158.783 167.517 -11.8063
159.894 166.87 -11.3809
160.824 166.124 -10.7757
159.329 168.048 -10.8823
157.812 164.071 -9.107889999999999
156.341 165.064 -9.02149
156.617 165.479 -10.3258
159.091 163.659 -9.679069999999999
161.356 163.381 -9.891489999999999
160.325 163.406 -9.984069999999999
159.91 162.96 -8.87228
160.45 167.266 -10.3582
162.129 163.944 -9.83381
162.122 163.35 -9.61947
161.987 164.907 -9.62247
162.602 164.184 -8.80838
161.79 166.087 -9.12477
160.915 167.474 -9.05059
155.627 168.133 -11.0309
156.412 168.873 -11.5964
157.099 168.867 -11.651
155.877 169.301 -10.6454
158.118 168.563 -11.375
157.357 169.363 -10.7337
155.293 166.15 -9.09901
154.415 167.216 -8.896039999999999
154.866 167.363 -10.0748
154.7 168.308 -10.1531
154.857 169.172 -10.0473
158.512 169.098 -10.3231
159.847 168.544 -9.150270000000001
158.706 169.537 -8.96747
154.386 169.651 -8.896890000000001
155.532 170.376 -8.952920000000001
157.184 170.326 -8.85243
220.823 171.527 -9.14626
219.514 171.832 -9.195029999999999
218.534 172.751 -9.38326
222.022 172.108 -10.5996
222.108 171.86 -9.1051
217.788 173.79 -9.03342
217.998 174.155 -10.3423
217.734 175.459 -10.5481
217.601 177.25 -10.6355
223.256 172.649 -9.32038
224.455 173.682 -9.350820000000001
225.524 174.881 -9.357799999999999
226.244 176.198 -10.7557
226.395 176.095 -9.189120000000001
217.63 179.109 -10.5951
217.782 180.601 -10.4563
227.036 177.567 -9.279870000000001
227.601 179.478 -9.03736
227.534 181.442 -9.042540000000001
217.579 181.167 -9.081569999999999
218.098 182.097 -10.0152
218.538 183.575 -9.33479
226.752 183.491 -9.325939999999999
219.591 185.484 -9.31415
226.012 184.527 -10.1237
225.376 185.618 -9.32503
220.482 186.262 -10.0237
221.29 187.046 -9.20154
223.998 186.503 -10.5969
224.195 186.775 -9.109579999999999
222.866 187.271 -9.167299999999999
216.231 213.327 -10.9193
217.117 213.68 -10.8302
216.253 212.907 -9.228630000000001
214.716 213.151 -9.24582
213.855 213.883 -10.0551
217.428 213.4 -9.07887
212.903 214.555 -9.37082
217.429 215.894 -10.6078
217.888 214.657 -9.10047
217.717 216.3 -9.128159999999999
159.907 213.779 -10.3667
159.111 214.049 -10.2471
158.862 213.9 -8.935090000000001
158.282 214.933 -9.133699999999999
158.15 216.347 -9.22377
160.812 213.818 -10.2777
158.609 217.772 -9.30302
162.012 214.284 -9.256779999999999
160.932 213.626 -8.98366
163.251 215.176 -9.33235
164.419 216.2 -9.384080000000001
165.561 217.253 -9.371930000000001
211.72 215.952 -9.39324
210.658 217.196 -9.36495
217.181 217.173 -10.0196
216.744 218.432 -9.345319999999999
159.436 219.038 -9.371029999999999
160.417 220.218 -9.36763
166.679 218.336 -9.39472
167.852 219.391 -9.37383
209.662 218.424 -9.36139
208.723 219.714 -9.26023
215.747 219.969 -9.35323
161.489 221.328 -9.393409999999999
162.575 222.433 -9.372450000000001
169.121 220.431 -9.39579
170.665 221.437 -9.38242
207.935 221.274 -9.0243
207.916 222.881 -9.09113
214.708 221.222 -9.38128
213.635 222.351 -9.35182
163.704 223.508 -9.38968
164.853 224.592 -9.35928
171.641 222.139 -10.1636
172.945 222.626 -9.40314
208.74 224.046 -9.115500000000001
212.481 223.332 -9.33832
211.27 224.117 -9.24469
166.077 225.651 -9.3499
167.365 226.446 -10.7502
167.246 226.671 -9.202870000000001
174.935 223.403 -9.33832
176.308 224.271 -10.7581
176.814 224.064 -9.20285
210.111 224.089 -11.0099
209.96 224.452 -9.14561
168.673 227.675 -9.36731
169.85 228.263 -10.1444
170.892 229.007 -9.368029999999999
177.691 224.746 -10.0427
178.929 225.311 -9.26295
179.797 226.623 -10.5332
180.148 226.421 -9.079549999999999
172.922 229.936 -9.34985
174.39 230.312 -9.99668
175.775 230.551 -10.3844
177.007 230.56 -10.4164
175.285 230.773 -9.05983
178.141 230.38 -10.2761
179.496 229.898 -9.374499999999999
180.415 228.951 -9.212960000000001
178.509 230.592 -9.01281
180.654 227.653 -9.16033
161.396 162.728 -8.70313
162.401 163.085 -8.621029999999999
160.049 162.399 -7.11201
158.618 163.023 -7.08254
158.722 163.237 -8.41072
161.61 162.021 -6.96199
162.889 162.518 -6.86658
162.542 165.248 -8.39968
163.13 163.959 -7.03974
162.795 165.432 -7.07847
157.348 163.918 -7.25086
155.968 164.915 -7.29978
154.89 165.928 -7.42302
153.963 167.089 -7.23216
162.109 166.576 -7.39619
161.223 167.759 -7.33861
154.056 168.457 -8.86063
153.28 168.627 -7.1194
153.538 170.291 -7.30721
160.185 168.799 -7.45179
159.056 169.726 -7.27224
154.675 170.827 -7.79649
155.71 171.13 -8.04949
156.499 171.075 -8.016870000000001
155.047 171.455 -6.9333
157.668 170.588 -7.15042
156.462 171.272 -6.92563
220.657 171.022 -7.01526
219.148 171.327 -7.04388
218.376 172.331 -7.89859
222.116 171.677 -7.26024
217.734 173.258 -7.25074
223.333 172.59 -7.36657
224.487 173.632 -7.40627
217.375 175.369 -9.003209999999999
217.22 177.248 -9.01702
217.27 175.206 -7.25981
217.108 177.21 -7.26334
225.513 174.802 -7.39667
226.412 176.036 -7.36524
217.281 179.213 -9.021610000000001
217.152 179.217 -7.26309
227.11 177.447 -7.34537
227.698 178.937 -7.22139
217.388 181.096 -7.25431
228.07 180.092 -8.067449999999999
228.128 179.982 -6.96768
228.05 180.839 -8.06819
217.867 182.54 -8.53321
217.798 182.655 -7.15297
227.649 182.003 -7.21211
228.114 180.955 -6.96605
226.997 183.513 -7.30573
218.482 184.024 -7.31155
219.309 185.566 -7.30399
226.24 184.731 -8.610609999999999
226.313 184.865 -7.17835
220.255 186.578 -8.553000000000001
220.181 186.817 -7.09323
225.393 186.039 -7.29847
224.267 187.205 -7.24013
221.446 187.76 -6.99407
222.944 187.943 -7.09539
159.83 213.485 -8.938549999999999
159.772 213.412 -7.27161
158.666 213.834 -7.21372
157.784 214.896 -7.00857
160.962 213.59 -7.31023
157.722 216.288 -7.03562
162.111 214.266 -7.37474
163.287 215.174 -7.41348
214.943 212.486 -7.10095
213.61 213.415 -7.14135
213.658 213.605 -8.596349999999999
216.446 212.325 -7.39785
217.941 212.831 -6.86656
218.445 214.396 -6.9571
218.062 216.167 -7.19275
158.467 217.764 -7.3208
164.41 216.218 -7.42133
165.54 217.276 -7.42847
212.663 214.582 -7.34832
211.687 215.934 -7.39944
210.665 217.187 -7.41711
217.436 217.508 -8.551740000000001
217.528 217.592 -7.15314
159.41 219.02 -7.3983
160.428 220.194 -7.42393
166.654 218.361 -7.42293
167.841 219.396 -7.42121
209.657 218.405 -7.4036
208.663 219.606 -7.36115
216.728 218.786 -7.34559
215.766 220.066 -7.40726
161.515 221.298 -7.42439
162.596 222.408 -7.42883
169.111 220.393 -7.40008
170.548 221.252 -7.3586
207.818 220.861 -7.22554
207.218 221.898 -6.9663
207.32 221.896 -8.078760000000001
207.3 222.618 -8.098940000000001
214.705 221.238 -7.41705
213.623 222.36 -7.41847
163.714 223.486 -7.42211
164.824 224.583 -7.41957
171.858 221.96 -8.648809999999999
171.919 221.927 -7.20326
207.164 223.058 -6.9632
207.658 223.586 -7.71297
208.298 224.613 -6.99278
212.461 223.376 -7.38897
211.222 224.282 -7.30549
165.984 225.643 -7.39631
167.134 226.695 -7.36148
173.304 222.629 -7.34351
175.037 223.271 -7.35556
176.773 223.828 -7.29893
178.078 224.491 -8.5466
178.226 224.412 -7.15567
209.755 224.928 -7.01936
168.373 227.671 -7.3444
169.634 228.482 -8.634370000000001
169.545 228.541 -7.19943
179.443 225.28 -7.27406
180.669 226.391 -7.22063
181.462 227.752 -7.08975
181.168 229.346 -7.11347
170.908 229.24 -7.33827
172.505 229.984 -7.32157
173.974 230.553 -8.53168
173.882 230.622 -7.15354
180.009 230.073 -7.92267
179.137 230.676 -7.24024
177.019 230.879 -8.97758
175.41 230.959 -7.24746
177.207 231.014 -7.24718
160.201 162.117 -5.46585
158.649 163.004 -5.57631
157.273 164.062 -5.55926
161.267 161.68 -5.84288
155.575 165.124 -5.56615
162.932 161.68 -6.02387
162.236 161.507 -6.07524
162.014 161.39 -5.18212
163.696 162.426 -5.43772
163.345 161.568 -5.0527
163.584 163.796 -5.28932
162.822 165.806 -5.4706
154.643 165.87 -6.08783
153.703 166.854 -5.47467
162.214 166.834 -6.06767
161.365 167.907 -5.53336
152.966 168.07 -5.88766
152.331 168.939 -5.16751
152.508 169.335 -6.15067
152.379 170.516 -6.09823
160.396 168.846 -6.10841
159.439 169.536 -5.5639
152.394 171.468 -5.82928
153.44 171.488 -6.31391
157.742 170.478 -5.53547
156.393 171.303 -5.5373
152.991 172.201 -5.01489
154.86 171.757 -5.40463
220.158 170.428 -6.15218
219.584 170.518 -6.15822
219.552 170.451 -5.33433
218.951 171.165 -5.49177
218.171 172.05 -5.47488
218.217 172.074 -6.55516
220.947 170.997 -5.53094
220.216 170.398 -5.34054
222.099 171.751 -5.67198
223.175 172.781 -5.65931
224.319 173.792 -5.72305
217.728 173.372 -5.60147
217.45 175.191 -5.6081
217.346 177.199 -5.6037
225.277 174.98 -5.67403
226.215 176.123 -5.72967
217.384 179.217 -5.61138
226.87 177.475 -5.67965
227.467 178.944 -5.63499
217.572 181.08 -5.63435
227.987 179.984 -5.65989
217.96 182.632 -5.64852
227.446 182 -5.62656
227.98 180.955 -5.65852
226.83 183.485 -5.65097
218.701 183.987 -5.60173
219.434 185.544 -5.63264
226.174 184.861 -5.6545
220.184 186.823 -5.61458
225.224 186.099 -5.58551
224.212 187.564 -5.53646
221.194 187.744 -5.47589
221.97 188.442 -6.13293
222.621 188.51 -6.15714
222.005 188.451 -5.28431
223.427 188.189 -5.91731
222.961 188.555 -5.27856
159.744 213.548 -5.73399
158.665 213.841 -5.71458
157.836 214.615 -5.56144
160.887 213.753 -5.75743
157.209 215.195 -5.35603
157.189 215.25 -6.15311
157.173 215.795 -6.15784
161.953 214.496 -5.70988
163.123 215.371 -5.74883
214.678 212.513 -5.52231
213.618 213.443 -5.64345
212.802 214.686 -5.6633
216.52 211.694 -6.26427
215.615 211.782 -6.21891
215.549 211.761 -5.32131
211.92 216.15 -5.6554
217.414 211.918 -6.14292
218.236 212.512 -5.41359
217.5 211.797 -5.28997
218.831 213.146 -6.09308
218.939 213.079 -5.3015
218.982 213.747 -6.11541
218.532 214.698 -5.49097
219.033 213.794 -5.31598
218.001 216.2 -5.60847
157.201 215.848 -5.3534
157.803 216.577 -5.55345
158.584 217.737 -5.70156
164.179 216.462 -5.70056
165.342 217.479 -5.74293
210.864 217.369 -5.72543
217.406 217.567 -5.66472
159.623 218.832 -5.69133
160.622 220.007 -5.7432
166.413 218.607 -5.69224
167.646 219.6 -5.72509
209.888 218.612 -5.68723
208.827 219.714 -5.72216
216.511 218.718 -5.66294
215.581 219.945 -5.73145
161.758 221.056 -5.69825
162.797 222.206 -5.7424
168.881 220.643 -5.65151
170.415 221.458 -5.65964
207.985 220.907 -5.64403
207.286 221.945 -5.62459
214.472 221.025 -5.69326
213.439 222.178 -5.74067
163.95 223.243 -5.69363
165.001 224.386 -5.73495
171.842 222.116 -5.66003
173.23 222.902 -5.60558
175.011 223.517 -5.62408
207.121 223.054 -5.56929
207.44 224.008 -6.45176
207.366 224.064 -5.45802
212.271 223.177 -5.68851
211.18 224.201 -5.69762
166.173 225.409 -5.67743
167.247 226.516 -5.7118
176.759 224.003 -5.64295
178.247 224.551 -5.64252
179.562 225.453 -5.56334
181.161 226.486 -5.48301
208.066 224.821 -5.49278
208.676 225.42 -6.1464
209.238 225.512 -6.15278
208.634 225.499 -5.33851
210.023 224.951 -5.54858
209.288 225.545 -5.3486
168.463 227.453 -5.65126
169.601 228.383 -5.67434
181.907 227.331 -5.83012
182.272 228.206 -6.06808
182.685 227.986 -5.02482
182.183 228.937 -6.07053
170.966 229.059 -5.65059
172.556 229.752 -5.61015
173.917 230.465 -5.65096
180.52 230.247 -6.53903
181.735 229.703 -5.78312
182.634 229.132 -5.01097
180.995 230.291 -5.32295
175.455 230.806 -5.63332
177.272 230.881 -5.59827
179.197 230.696 -5.53738
162.089 161.654 -4.28932
161.094 161.772 -4.34699
161.048 161.563 -4.9082
163.321 161.652 -4.25747
164.1 161.656 -4.56131
164.061 161.68 -4.20583
164.26 162.236 -4.62291
164.195 162.991 -4.62328
160.308 162.693 -4.2532
158.843 163.318 -4.53725
157.813 164.637 -4.21234
155.846 165.52 -4.32979
163.162 163.812 -4.15545
164.055 162.998 -4.18399
162.49 165.673 -4.30167
154.683 166.018 -4.36957
154.542 165.856 -5.02454
162.243 166.963 -5.01021
162.075 166.849 -4.36207
154.021 167.135 -4.19712
152.959 167.856 -4.30593
152.827 167.77 -4.89482
160.481 168.847 -5.03942
160.997 167.561 -4.21313
160.328 168.667 -4.37785
151.667 170.823 -4.91827
151.723 172.085 -4.91069
152.56 169.021 -4.21564
151.88 170.838 -4.08362
150.998 171.659 -4.09064
150.943 171.653 -4.42411
150.87 172.378 -4.37033
157.207 169.917 -4.22873
159.162 169.13 -4.33502
156.219 171.024 -4.56885
220.168 170.636 -4.68161
219.636 170.659 -4.68138
219.321 171.581 -4.47965
220.652 171.537 -4.47738
218.424 172.192 -4.64947
221.854 172.091 -4.66427
150.835 172.931 -4.22404
151.395 172.908 -4.37776
152.125 172.858 -4.45838
152.961 171.946 -4.12606
154.853 171.369 -4.34833
152.113 172.789 -4.11193
218.245 173.393 -4.47421
218.125 175.184 -4.36224
222.618 173.405 -4.33816
223.957 174.152 -4.63021
218.08 177.201 -4.31873
224.642 175.557 -4.32632
225.811 176.349 -4.67543
218.105 179.236 -4.33591
226.183 177.628 -4.4681
226.745 179.493 -4.41164
218.205 181.101 -4.42902
227.646 180.098 -4.78796
218.372 182.467 -4.61847
226.742 181.455 -4.40872
227.644 180.844 -4.78763
226.176 183.343 -4.45194
219.427 183.43 -4.23154
220.055 185.389 -4.42726
225.803 184.662 -4.63146
220.463 186.625 -4.64303
224.656 185.533 -4.26322
223.937 187.288 -4.41849
221.532 187.241 -4.35243
222.11 188.202 -4.54931
223.69 188.297 -4.98105
223.612 188.161 -4.45828
222.92 188.264 -4.43539
216.538 211.569 -5.27132
216.533 211.93 -4.49269
215.641 212.03 -4.58663
215.018 213.021 -4.39663
217.407 212.009 -4.61007
213.898 213.654 -4.67056
217.909 212.886 -4.48661
218.761 213.164 -4.67106
159.751 214.018 -4.69081
158.817 214.104 -4.80809
158.319 214.974 -4.58189
160.726 214.116 -4.7851
157.457 215.273 -4.7193
161.448 215.12 -4.48675
162.785 215.752 -4.69559
213.423 214.874 -4.47403
212.606 216.792 -4.32626
217.953 214.381 -4.43656
218.795 213.748 -4.66098
217.409 216.137 -4.49447
157.462 215.801 -4.70907
158.351 216.291 -4.54022
158.932 217.495 -4.71003
163.582 217.081 -4.41855
164.977 217.853 -4.66933
211.253 217.732 -4.64049
217.042 217.388 -4.67964
160.23 218.286 -4.43523
160.992 219.653 -4.67749
165.803 219.227 -4.39539
167.277 219.994 -4.63429
210.507 219.198 -4.40425
209.195 220.027 -4.68048
215.903 218.205 -4.394
215.211 219.612 -4.66262
162.375 220.449 -4.40902
163.169 221.836 -4.66641
168.236 221.355 -4.30891
170.238 222.134 -4.43453
208.576 221.371 -4.46189
207.6 222.09 -4.72694
213.864 220.421 -4.40051
213.084 221.812 -4.67422
164.569 222.629 -4.39291
165.367 224.015 -4.65349
171.621 222.536 -4.61712
172.637 223.662 -4.23294
174.868 224.282 -4.32304
207.509 223.048 -4.62174
207.587 223.954 -4.70498
211.723 222.573 -4.43206
210.935 223.866 -4.7071
166.779 224.792 -4.36306
167.584 226.144 -4.63656
176.74 224.641 -4.43261
178.089 224.922 -4.61691
179.033 226.015 -4.23223
180.945 226.768 -4.32966
208.425 224.445 -4.54766
208.715 225.305 -4.70569
209.733 224.436 -4.53292
209.241 225.314 -4.70421
169.002 226.837 -4.34504
169.812 227.999 -4.65237
182.127 227.1 -4.8585
182.044 227.186 -4.32993
171.117 228.394 -4.42867
173.111 229.023 -4.25205
174.085 230.061 -4.62678
182.048 229.909 -4.79964
182.551 228.049 -4.19111
183.447 228.368 -4.50418
183.408 228.38 -4.18972
183.433 228.791 -4.50117
182.537 229.046 -4.18801
183.401 228.773 -4.18884
182.01 229.822 -4.3098
175.443 230.213 -4.44356
177.271 230.263 -4.35674
179.201 230.192 -4.3323
180.93 230.022 -4.31727
161.85 162.614 -3.8945
163.262 162.473 -3.95836
159.805 164.345 -3.7749
161.591 164.146 -3.73546
164.133 162.251 -4.12493
157.587 166.421 -3.63225
155.661 166.807 -3.77333
159.535 166.154 -3.57328
161.257 165.936 -3.7904
153.752 168.726 -3.79482
155.476 168.468 -3.59088
157.422 168.211 -3.63964
159.347 167.853 -3.77473
153.383 170.46 -3.80699
155.231 170.136 -3.83049
151.634 172.146 -3.94631
150.865 172.391 -4.02156
219.364 173.232 -3.94242
220.91 173.23 -3.87744
150.83 172.932 -4.01757
151.375 172.904 -4.02688
219.37 175.149 -3.66922
221.036 175.171 -3.47324
222.869 175.291 -3.71196
219.375 177.213 -3.55978
221.094 177.241 -3.26982
222.985 177.306 -3.35714
224.788 177.433 -3.77525
219.394 179.313 -3.56994
221.129 179.364 -3.22186
223.061 179.401 -3.23231
224.977 179.443 -3.60034
219.425 181.376 -3.73419
221.153 181.486 -3.30829
223.074 181.519 -3.25894
224.981 181.508 -3.60332
221.193 183.576 -3.54854
223.038 183.609 -3.42306
224.8 183.549 -3.77156
221.384 185.55 -3.84243
223.01 185.587 -3.72398
222.874 187.26 -4.05693
216.487 212.959 -4.12943
214.766 214.688 -3.95471
216.377 214.555 -3.91506
159.828 215.06 -4.24046
159.977 216.586 -4.09029
161.767 216.8 -4.02923
214.409 216.593 -3.83997
216.099 216.393 -3.95856
162.043 218.622 -4.00026
163.93 218.903 -3.9866
212.312 218.816 -3.95887
214.162 218.545 -3.94357
164.235 220.784 -3.9764
166.187 221.062 -3.94837
210.238 221.036 -4.0193
212.05 220.75 -3.99136
166.46 222.954 -3.92286
168.465 223.218 -3.78208
170.522 223.525 -3.83019
208.515 222.972 -4.21593
210.027 222.826 -4.08338
168.686 225.078 -3.83419
170.7 225.282 -3.59243
172.801 225.461 -3.60004
174.943 225.707 -3.62777
170.881 227.023 -3.81972
172.926 227.278 -3.61705
175.033 227.408 -3.46486
177.004 225.883 -3.77737
177.125 227.497 -3.47607
179.172 227.597 -3.64991
181.058 227.846 -3.84705
175.165 229.041 -3.78927
177.199 229.075 -3.66668
179.212 229.085 -3.70974
181.058 229.088 -3.85678
