881
201487.3764828438 254936.4470693253 -23183.04193695253
199506.40922081438 255290.1286281477 -21083.16249286614
202457.4146814844 254954.5693872471 -20395.260499536947
209214.697641475 253229.7130956525 -24114.05303458593
204265.70823722612 250949.4383771286 -22215.766053656767
210175.1510931818 253033.0553914196 -21324.981273680478
206290.3164158551 253965.2679357577 -24700.77166590679
204365.792796917 254578.0968295144 -22612.72583608476
207376.093851271 253831.2339739409 -21961.57017044606
200157.93274313008 251421.8653880196 -19581.12286467319
197215.9787647191 252384.87876882261 -16996.090806286178
202439.57820069348 251182.4583044072 -17035.941575460998
197507.2990379108 255470.0972478489 -18748.67020889036
200674.60286229418 255290.6774731494 -18065.98757029122
198546.4486846561 255473.4574813817 -15961.248741613259
203615.7895339434 254900.8567330069 -17432.18170691474
205509.62697380272 250868.4428811376 -18891.3559208284
211110.01906081798 252794.9176713531 -18481.14697931927
205821.9107443581 250900.66365919198 -15286.65283951747
205493.0593434483 254450.713326553 -19706.4278870786
208355.3726800741 253780.5841403038 -19116.65039683196
206473.1669970559 254340.69952886843 -16840.26979103319
209278.6103688449 253566.7422100099 -16270.338010486568
216359.6196998953 240039.0182430656 -24068.46346469336
217851.8183627316 238817.7644710477 -22575.956380649783
216641.1759555999 239990.1820851939 -20997.83005750746
212321.0577948961 243079.26489697848 -23662.966571175002
214530.98313572598 241605.88467722828 -22372.110249844733
212565.3128041575 243117.47378938942 -20700.70979639712
218064.4405389051 243497.4015433274 -22124.85904102875
222625.0753368047 237514.6630375672 -22802.506195424437
225409.13284791211 239622.5798719417 -23061.83615858791
219440.07489774041 237268.1589653382 -22503.81310482339
221857.93287868798 241853.4324745197 -22193.241971002048
226088.8305426634 242871.94043746608 -23366.80853290955
225155.72740519018 243985.4238423363 -20848.68689307354
216587.3609098789 240178.613678344 -18485.96917784105
218512.68073305828 238375.3179801495 -19399.61236400285
217646.62614871652 239319.0223804712 -16234.24811056584
214730.8391727054 241647.5982862117 -19423.278203708607
216788.3439079002 243524.4184853924 -19257.920872309798
212791.1221803594 243126.80338889168 -17736.69897530381
215009.9078049615 241556.5171803888 -16251.30584649924
222881.9199857852 239306.8506844505 -19888.84326521077
226763.3580722897 238465.025266479 -19235.77733409136
219736.5545866316 237234.8169242558 -17068.239717516408
220581.7428895683 240009.4182894176 -16768.4749514839
223490.8059047799 238698.2616296566 -16082.021038794132
219842.1419263847 242270.778433587 -19488.47921738075
225981.9954030498 243539.9873203668 -18046.391933883348
219863.2188073114 244233.5792480617 -16402.98070542985
223639.5433691517 242016.7406425532 -17659.99979343929
216463.24591770078 245841.865764483 -24801.8950244873
214173.7591428419 247327.92088600498 -22668.414920332052
217124.7343239887 247056.83685610752 -21341.68486378275
211986.1130687945 252244.7293354492 -23505.82798078205
214663.8716032516 251034.519228396 -22889.43420498941
212938.681126385 252017.8737727791 -20685.74153269522
217248.39734518368 249697.3190755313 -22279.72053071164
219755.9036334647 245186.64737813448 -24183.25116350747
223618.9798155323 245081.8291347526 -23125.85188227998
222140.7139136684 246554.18160617191 -21029.16730158664
218885.22912295928 248555.5606205631 -24484.15320653912
221280.3715305536 246908.1773666981 -23854.63546828082
219720.89002471732 248166.50659299528 -21656.568974347072
213928.5288357788 245219.4155594491 -20279.26609470989
213532.1355133382 247361.31972516072 -17094.139681534292
216424.5452746207 246105.99157138882 -17748.60310164862
213837.4085042696 251734.7435425058 -17851.8979124578
215557.0759603668 250742.179033141 -20067.80295889602
212011.9021623651 252508.3640905163 -15630.28572596262
216424.6980244153 250396.36064668928 -17242.04726385897
223655.5572881485 245497.22592213622 -18583.54214131455
222170.27698269702 246870.5598407226 -16413.49959883236
224579.86692055129 244914.97248314702 -15875.678789311489
218147.2788941964 249401.276529766 -19483.03452572124
220632.47081280182 247758.9363359923 -18866.085822208
219378.7075100033 248759.54146580218 -16381.505119358319
227307.1714469516 194680.1319159457 -33660.73216178015
230947.0424970238 193052.7699311462 -34016.95129235922
228444.9115961482 192086.4168249082 -30962.97703483048
230842.0770140388 195931.17523682362 -31544.55066074166
232201.6760812306 202468.3991822197 -34315.2297602299
229535.223930356 200939.09261367508 -32499.55794997405
235011.2818010433 194150.92254486482 -34107.85709799197
235463.7083064327 195914.66519056787 -31071.12273888616
233137.39891075282 199256.70205326303 -32699.20281992089
236960.20029273318 198290.36387922158 -33664.56201769344
235371.5834424525 201931.4855530223 -31642.24861228024
228579.0998940683 194984.3359918005 -28350.916651438863
231660.0255990041 195092.6923331212 -26957.38910249251
226873.2899488901 196290.680833593 -24708.57306806919
227629.34854096678 199383.76753507918 -29710.201863518912
229006.1898273805 202369.1445230956 -29374.384984469318
229205.5595425353 200090.0455202102 -26468.75270208101
234641.13638932118 194723.3295361207 -28021.40356195211
235486.6851423603 197144.8460281985 -25312.433249895228
236051.8791213981 192611.6761792946 -26320.52461463508
231820.8788097545 198391.0403582619 -29211.17889345231
232731.41946853683 201789.71082006482 -29396.12772543978
235290.2213580751 198845.4260735885 -29253.05862266549
233073.9144441712 200710.7216795845 -25757.42397515149
226968.3584244672 206132.1703287637 -33531.44185651453
229805.43289135722 207277.828577642 -32857.78664598082
227558.9975283105 207226.913937078 -30832.33174404904
227679.94545593252 208978.5306353996 -33245.72786799456
228085.81083723227 211789.7628054598 -32878.67044685154
230701.7356706981 211006.2610373179 -33303.75693855003
228139.4955176384 210123.2904296062 -30505.9307956423
235106.8869053203 204228.06679811608 -33921.058913320456
231102.9122951879 204706.1839727447 -31241.403875438253
235023.3072767148 206337.6805836706 -30413.9552041373
233368.1515204492 207807.0937260711 -33212.66826519966
237016.7108786013 208076.3322601713 -33340.897220769155
232358.8835669577 210396.6132328416 -30308.206907999138
227299.1746343996 205477.9862184725 -28442.27650868216
228052.6667873667 208347.5700905018 -28124.37871137143
227770.36612310662 206624.0127986507 -25858.57392119578
228496.8771619804 211269.0021995087 -27884.27652760296
228380.15007957112 209479.4120277272 -25578.55093464325
228697.7645059745 212345.5633523238 -25463.935046021623
236460.87527348832 204666.97221912487 -27555.49441169898
230707.8061891734 203949.4680245631 -26807.569439184528
231007.2531494757 207617.4045734168 -27801.204975570658
231368.06935914792 212146.4047414073 -27222.94519539602
235278.493231141 208727.65098323088 -27367.538779891318
238442.6900256827 194661.9043386028 -32680.901765780007
243256.74199364122 196187.8997889682 -33590.61516070875
241526.5182382418 194237.0406860019 -31200.13865572398
241643.51340010628 199069.4981061956 -32271.607227673
238891.8435690283 199117.05758739667 -30159.78765064825
245645.291571446 196633.3514777576 -33375.61489347516
246414.7207075293 193892.5370907885 -32534.268643685275
243925.47559222562 193349.8578475622 -29294.971953309312
246050.315845679 196072.99688383008 -30499.410490878192
246802.9814383736 193299.58709664378 -29654.607623150303
244540.9250482651 201504.664391389 -32209.923690453004
244870.71286922408 199371.948587729 -34267.70897999192
244982.6931612502 200933.44792584862 -29319.307265748288
245342.73653998802 198713.9933260535 -31310.21553380739
237375.6565997562 192315.9447606245 -28750.47966826603
238966.70452472402 194607.53093351662 -28984.126020926902
238997.0610746336 192581.1503761182 -26375.60330967878
241830.6651685931 194853.68099011318 -26929.3553904247
237384.2850859605 200997.1845681159 -27347.175350650592
242459.75673838318 197731.39260076248 -29088.56549713695
238076.2713679929 196316.88071109532 -26950.13032660438
240034.4628093598 198750.1846642042 -25436.69453565602
246437.8235213437 195440.3520871324 -27635.360290324497
247126.21435462238 192683.36170633422 -26779.17647159813
244313.3959460479 193235.46143037977 -25580.22814487315
246721.6927240573 194788.59411476259 -24748.60330136476
245347.89924594908 200317.63714375172 -26449.58337492752
245738.1858650235 198184.6370447355 -28425.6103756275
243231.6448932437 197730.85114179552 -25291.47949003142
246045.2133403596 197555.3263111834 -25599.60670317808
238432.9470388728 201822.7072576058 -34436.77149903692
240937.0406400282 204365.7322608683 -34035.29307112335
237891.08212263888 203786.49652076708 -31793.51356649288
239647.0165338513 206444.86111504672 -31790.7953849511
238243.11345564108 212464.7400378563 -33508.589422905425
240019.61797876292 209458.337883165 -32892.17644679412
237426.78704602868 210547.2678352668 -30769.49543383157
242913.3071038047 207000.930961754 -33891.09399028767
243739.4671166988 204255.4449985931 -33050.99768875922
241544.7314286871 202570.8488563173 -31709.72578333344
244214.353829169 203682.7001866408 -30179.4416290045
243392.5470380681 206413.9138220924 -31037.219762371402
241658.9127485102 211844.9808382716 -32692.172455059575
242550.045657765 209136.0694905905 -31857.487567679607
242177.116735199 211269.9324500245 -29822.86810803797
239973.23929573802 208013.8750352648 -28985.75849153639
240356.1662255474 204102.35626089168 -28951.72351899268
237964.260701849 207347.77246658932 -24970.463144129648
241384.249365511 206156.4138520535 -26152.20891734893
238964.3285624406 211027.8196511947 -27730.077355094552
239686.1779498463 211600.4611588095 -24698.93357351051
241047.2665927387 208636.555823193 -25501.10447975472
242138.71590144752 201813.49393383518 -27293.92442495738
243863.3670285338 205821.371731635 -28144.07367595816
244617.7621031369 203072.4487436453 -27297.65653002643
244226.9811216933 205201.283835852 -25258.67078163533
243058.3584211226 208557.1108064215 -28986.65846845003
242637.87369870782 210671.9823191754 -26954.811435595653
243451.4677025778 207944.8157628271 -26103.58827597862
230175.69553606008 193452.2533753479 -24332.75316182672
227931.2131946937 192197.1694379985 -20656.72981990668
227632.34589843883 196787.6658985799 -21693.09382173896
230630.709147511 194284.1600315683 -20114.36728294507
227715.514404689 199641.4869860354 -23426.52692858983
230767.57071652962 197406.8760292442 -23565.67970565946
230175.5933071514 201869.7110250468 -23195.65577764087
229211.3565679488 199049.6757171927 -20052.68885576112
234875.9892822779 192503.3664691341 -24233.50185580139
232858.0444471401 192142.5690900907 -19891.403284735698
234958.1842333341 192859.6460563676 -21820.21001363697
233457.117565645 194912.0804863173 -23247.49917460599
233544.31434538422 198961.40391117212 -22619.99224364063
235918.06331962452 197833.9364443215 -20822.59591964507
227764.4052392971 195434.6707799573 -18891.50678018278
227808.23493065342 192343.01938161682 -17088.743459957448
230521.4954692791 194375.65372578998 -16094.08112790716
229242.9508285711 200303.6316262105 -16968.53966146307
230651.33489347438 197387.99060307367 -16967.41756077089
227418.7293393069 197133.9021496009 -16053.26666249908
233975.1622088391 195745.6723969039 -19243.92951758136
235256.7263011656 193354.2106952848 -19053.18736172427
233275.52228276248 192724.23352970948 -17241.821288855408
235701.4119080133 194036.6806240017 -16402.56714402057
232953.7402725494 199745.3229092933 -18885.990569972928
233769.1251213878 196679.8336426012 -15778.11604220405
234100.14548709212 201562.7040642346 -16380.330421758561
227382.1917920907 204968.39380277542 -23339.32174883494
230490.2626560812 205453.3206804795 -22458.14584616604
226901.2875029195 203360.389947899 -20879.59191474625
227847.0917074572 206167.8910079465 -20643.551016184043
228154.8393587718 207774.682484479 -23121.14614479326
228624.1454228854 210546.9474192349 -23132.191486973243
228466.4339685025 208879.26777695792 -20547.85777514616
228832.3101633934 211603.5051783385 -20436.62696482398
233780.6595078986 205009.7111100015 -24371.43908456293
236268.23354300772 202542.31994218612 -24071.31119432884
233920.3576210363 202257.56963066582 -21570.44296410757
232854.85994458158 208264.0211220141 -23712.661577231687
231589.2075704717 211066.53143964452 -23012.57300361221
236498.15765626958 210142.87350829368 -23795.07642964079
231700.312143274 208511.7220822204 -19559.89058874478
235784.36390292153 210403.23762918502 -19744.92047361008
227433.1505513463 204533.2413024776 -18213.03746105043
229915.68983887832 202693.6354598549 -19140.2583339171
230384.4458688987 205734.1927198641 -17412.209147270707
227856.9616904074 205739.4676085956 -15517.60576430465
226881.0822960864 202938.7844448651 -15749.086707016771
230614.96015117707 203207.4601875897 -15680.75887580742
228233.59655291718 207336.3299625742 -18052.83506762897
228746.5741272796 210139.1552931793 -17945.68200167841
228535.35127931728 208568.3784486572 -15410.2617003813
228941.1630260281 211456.870807276 -15329.40269672314
233265.2589350759 204825.7293335056 -19265.3831190064
236343.0838698815 207227.42777248932 -17680.05662457568
233640.9702357836 205273.5197498593 -15598.45764543016
232052.5624404728 212030.7942138273 -16973.412109874498
232293.9203041039 208690.0393932971 -15988.515124843561
236116.0795144859 211751.6959357212 -16288.04226650913
237498.51967875139 193156.310929685 -23706.95836274898
240662.2587563477 192635.5097533731 -24008.61562414466
237023.5501463988 193604.8082818557 -20834.40362664479
239406.0264833439 193575.6629577576 -21469.94143248643
237760.21045151068 196149.413445416 -22866.80414476276
240212.99852877748 195397.0271536218 -24254.875675801082
238246.1710238763 199924.9367736072 -22471.511386821738
241978.0441379261 197553.3810350886 -21098.96279757451
243263.9051048315 194869.5697859886 -23035.87632560746
242221.3982146995 192144.1026592584 -21012.468973599218
247001.61580970642 194148.9203683393 -21859.3442869267
245655.9870264368 199684.08379188552 -23560.98881612546
246351.1998596147 196921.3734840405 -22711.294931834713
245964.0786993708 199050.4361430026 -20672.7013020122
246634.7973233238 196268.3896238442 -19806.50303376373
237992.2919875892 194223.43052261288 -18508.599549200208
240583.6070192231 193778.8824373955 -19234.00954711304
238171.9537553518 195080.5206467881 -15297.499810953781
240527.01873784538 194631.3895757987 -16849.65907190283
238701.8761492091 196605.8289990124 -19644.93584624114
239834.0666750351 200103.0409119279 -18395.56807289495
237126.9586577692 197683.29999035172 -16709.98390512036
242511.1235687338 192832.2486245929 -18001.575694274157
243974.4373144083 195646.3842039032 -19366.69226336043
247280.3658130505 193508.74170651828 -18970.39210726203
242743.75445496402 193730.20761365298 -15354.833566865142
246898.29124937588 195611.8083246873 -16901.92308601486
247503.2410151464 192852.4714253811 -16083.429622616919
242956.15265889312 197809.45956217492 -16979.61032401657
246253.9704655193 198389.6923892265 -17782.47827731657
245878.7348152319 200519.8094518031 -15740.44525334448
240177.1800905703 203296.6669224805 -24243.53976527142
242045.0169498654 203216.1984723006 -20463.555405824358
240000.3271591381 209539.1870964802 -22426.38120190381
241108.7517082822 206167.8826565478 -22142.54717473408
236765.8756366403 206507.3575151085 -21368.24942061395
244959.67918065528 202446.926544616 -24410.77806227701
242658.17781637382 200659.257551517 -22479.6292403359
245288.2905396147 201818.0210563984 -21523.283779400183
244565.0566694264 204583.2435367077 -22390.78910498289
243027.0612041168 210066.72167788868 -24091.1451510119
243826.5210989205 207327.8493016865 -23218.55994426269
242595.00372809608 212184.63325526888 -22019.0749272131
244175.8060579888 206718.9785463802 -20348.46149694021
243392.9440378333 209486.8023411214 -21238.33023846878
237162.7522782827 202822.7533970574 -19257.523357571303
240862.9546494898 205289.4430262446 -17612.55444568848
240829.86204314738 208951.860739967 -19284.945212767147
239410.92023355278 210303.85431296178 -16471.85166549766
244908.950198581 203949.4949918121 -19492.58843627316
245597.13669372108 201165.8854893975 -18624.749392402362
242833.6344693482 201538.32567004592 -16991.50983086136
244507.516733341 206063.64133730732 -17441.188240980788
245208.3235762816 203297.1256725394 -16611.618018675843
242977.5504297319 211568.1460587407 -19131.93641783738
243769.5780948546 208860.7349803846 -18280.03026982594
243323.43177628412 210941.006985299 -16241.26875789274
244096.4234273217 208190.3586918052 -15395.922775875899
228053.5879296659 217803.142817047 -32210.11210303382
228212.67427348328 214857.8323936673 -32511.471082583837
228415.718706948 216015.0124659164 -29981.68897662008
228419.80725585922 213058.25939458818 -30222.38681611111
226972.49961588442 222812.58340275948 -33706.77595090626
227669.692389283 220513.0784853544 -32034.25075009266
227191.8339806018 223227.6123464685 -30641.08649985931
228185.1799956462 218688.3190494944 -29789.749346940032
227836.40894491758 220929.4662451568 -29660.597215024372
230481.9542457238 217881.31973166257 -34221.42067411334
230662.4932640936 218273.3450281789 -30771.74436052135
230795.5168961144 214046.5404183461 -31824.94182543886
229263.0241372381 225418.54431227752 -33801.76694796242
231417.1835990799 221133.4132693481 -33397.51383671794
229754.7029053655 225612.7233148556 -30165.52594667272
230437.4834439379 222572.377670028 -30548.77346955912
228550.1612466178 216903.6073509367 -27580.64607057927
228650.66468311189 214154.8722573609 -27694.72381937037
228570.7487263134 217871.5131953253 -25264.00000096627
228751.6308566047 215102.3330555896 -25339.79191616838
226917.84254754588 224924.114876071 -27768.169385930592
227721.40352800078 222137.1021349495 -27620.9829747051
228250.9888385628 219470.9116708919 -27489.440081777422
227496.62312259388 223461.5483864922 -25246.44954157359
228163.08015821432 220615.03116254281 -25306.4673542046
231526.9339470391 215408.67669886048 -28293.56081797416
230825.4423409607 219107.3952804847 -27605.64695726945
230417.49695628398 221806.72279938552 -27201.57576042377
230999.1494598916 224846.2889748698 -26917.69190234416
227164.9019374093 230065.3581556447 -33771.577429376724
228983.56689662402 233478.64418177473 -32828.49115544883
226917.02065246672 230960.3852275139 -30183.39487181691
229462.1523256986 229331.5984261927 -30922.56780319828
227516.3470928446 239753.9235101661 -34114.635567683275
227474.8142322765 240354.034212331 -30932.19658483786
229198.982077077 238025.29691161518 -32401.47044991677
230689.8781366883 231321.4524663792 -34059.34507313972
232352.4874568579 228068.7801155988 -33024.388520848224
231927.66078849102 233884.47437464108 -33878.05407184938
231013.72612024678 235765.63984003328 -31741.076894374848
232647.2683276042 233384.4662651091 -31104.81468689071
229287.8411373191 233903.99485663572 -29093.72615856419
227877.750440659 230013.8973268863 -26820.00563879091
228716.4291952619 226985.220330801 -24961.96988496947
226989.8809235855 241333.0466305103 -28216.34969612671
229015.5831621363 239203.1027891884 -27335.460432417498
228719.6090461147 239243.0260316846 -29457.08634594562
227760.9650068485 240837.2852513107 -25263.3645225153
227938.1913310639 236174.837878774 -25994.583841915202
229661.37331164922 227719.00042036732 -27703.565831660002
231135.2139461599 231438.63941820108 -26485.90967923137
230060.9843540975 237475.80330604312 -29455.56901402123
231764.3257379148 235285.25447179048 -28937.74021606778
230739.9256712664 237015.63752016408 -26756.408069815978
232351.3732451495 234844.44905790032 -26164.5630461813
237432.9449927891 215779.8117447069 -33648.52101111395
234310.3052735899 213447.9498404671 -31499.001718503572
237849.43579205862 214879.2201941885 -30406.20619150009
233851.18807744642 216791.9624850821 -32293.46822790817
236851.4183543257 218776.5993717263 -31112.8667455904
240710.90397250798 214536.7542476361 -33519.57912791297
240281.7397961741 216624.27076494048 -31521.89249905543
241266.3111153017 213972.8680384396 -30655.08867499945
239225.61223180481 219310.05688762182 -32350.4553536041
239706.23975416212 217202.61676309552 -34349.33392504108
238712.30984540712 221405.4210978982 -30265.12934724644
235821.98297738712 217050.7733582185 -27827.562349947922
235482.0442222851 212635.04980228108 -26731.51395740752
233616.5667923449 220519.0553872506 -29410.94291134703
236537.70536925 221169.4670282799 -28651.81684001979
235918.91000871538 219503.05985509828 -25219.893769406488
239116.7131315745 214350.9589467586 -27028.83252238632
240858.2823138739 216037.5215177971 -28551.97908108867
241776.1702686671 213390.83277423878 -27799.56808947717
241285.65723897482 215498.5804243783 -25705.08787992477
242178.0527335318 212805.5822288394 -24938.112580935438
239862.62529376653 218666.7749534141 -29431.01506118289
239271.1923831623 220827.580614275 -27397.529637503598
240323.0475676088 218193.8769737113 -26572.172544023608
233020.9516166027 224925.8161003738 -32955.33248111914
235226.12015334802 222426.7749078184 -32155.103490660593
233512.0494799362 231524.2067822472 -33221.15054471357
234932.1941473374 229040.4136219284 -32550.95147757896
232805.2125738189 228052.1259437001 -29332.44070139417
234204.5139369472 230997.5602925854 -30404.23039685263
236922.4957674914 224501.6872971994 -33892.54023159545
238109.4931921066 221935.23012588342 -33158.936092830874
237532.80345124382 224012.8512600957 -31074.28436457062
236263.876531615 226599.20613488232 -31882.25034111294
235556.3777133261 228606.95348054467 -29789.05700169795
234398.0858425774 224743.80784921022 -28849.14425710229
232932.1475271407 227435.3323824728 -25279.9148099364
234899.5356898843 222688.5003219934 -26354.62473157384
233289.63309377228 233010.22074778998 -28269.25029636122
234767.954077189 230599.9696205309 -27707.98534028521
233878.1738787814 232523.3987440707 -25579.08562673576
235287.1747042774 230156.5774263202 -24919.87237158552
238153.955209623 223486.08309337648 -28213.97930771671
238668.4849369014 222916.7024863649 -25339.55287915305
236901.80460239382 226071.1483534887 -29025.142386969692
236154.3609427977 228115.4022236809 -26993.82630733325
237455.25887186968 225509.7787252994 -26148.39007259678
228808.3838603779 216190.24687098598 -22885.89197625939
228842.6985319987 213314.3886514319 -22960.54025761546
228528.3308761681 219053.6282432054 -22799.66336390321
227187.7333443779 224836.00624895003 -22629.41922824843
227987.9092017592 221975.06473004151 -22720.10845234103
229829.961219736 226461.9803902176 -21334.25377822165
231552.8200769316 217458.188568655 -24269.59796888509
232219.0955944418 214452.2121572383 -23867.43883220423
232374.7653118881 219719.7411169216 -21285.899320011118
230287.35543995872 224194.11076564548 -23823.944417120798
231992.3511583457 221171.5460840046 -24545.98280559803
232455.46499913023 223340.0399818061 -21248.29846660976
228803.4081696264 217536.68420397158 -20242.54495159978
228951.53462294332 214572.10968236212 -20361.225836838352
228995.4890746816 215988.93936654882 -17749.09637255883
229002.32528453172 213018.0767725672 -17828.448564761788
227731.4393882615 223364.2342182352 -20105.16606663676
228398.8564249517 220471.8107550614 -20118.64908522784
227409.3651430309 224735.0542632229 -17487.794300883623
228724.61206665493 218955.6159855344 -17676.88344512204
228199.1748005832 221871.23239908708 -17578.17506399678
231846.6933905535 216102.46934221569 -19265.05056176619
232297.2506829011 213052.6721747411 -20304.371970232558
232366.1906774468 216929.0587483286 -15665.04784575888
230918.07656246438 224775.5515253697 -18181.39781666244
231126.6248730685 220947.6620542229 -18175.77485638942
229966.82083412362 227066.2591338175 -15960.388843390201
228780.99553200492 232634.6568527057 -24068.2770930312
228454.6746520792 229779.2450866927 -22164.768474784778
229480.3477351667 235094.7675783876 -21459.78472146465
228470.48113068662 240419.0409188756 -22457.13360975985
229649.0407835749 238744.4549268423 -24656.56976473695
227168.372487419 242071.7643822195 -20272.032761575327
230267.9259288111 238319.90331022601 -21881.38554040468
231054.24698014 229235.46029722932 -23823.2836271247
231876.8243209006 231534.3256507577 -23021.10835726653
231945.4565119189 230416.1311206493 -20344.65983189574
231424.278928983 236513.03527084802 -23968.53875997204
232996.552408613 234276.4794811084 -23433.04634811073
231898.32669041518 236280.60016425498 -21244.10761827566
233521.2214650515 233903.504282351 -20644.01399125969
228799.8459301989 228090.7514874826 -19215.43571936538
229105.5760758933 232151.4852772199 -19634.915620381387
227027.3374031742 231948.96220605512 -15761.75382206144
228887.96381623478 229983.5634240238 -16938.24358197982
229969.4303667822 234462.79368374532 -16870.13993251427
229078.3752243831 240131.6541623565 -19476.966813321378
228000.40009513337 241504.3216566204 -17385.61993989984
229797.9041587544 239633.8764501645 -16704.5666941648
232530.3293462981 228463.5072138105 -18109.241519012372
232254.1569465542 231092.9632421883 -16085.555296272962
230795.2904264921 238012.56119274028 -19193.9999473685
232552.4626307303 235768.4633769219 -18632.61140360175
231467.33933366401 237482.9378994176 -16470.64260208925
233149.1243427524 235248.57024430882 -15760.917440703039
238366.8533941927 215649.9942363092 -24471.67526870969
235234.21207550602 216773.9917459439 -21989.049133930428
237548.5321729728 213164.80623217608 -22004.2444557948
238797.1293351325 215795.19585401018 -20089.38726063019
236214.5736155967 221391.1350484928 -22038.72358835676
238311.2062817439 218376.41235331818 -21782.374237308803
241706.6844929696 214898.4740949659 -22856.37695047075
241213.13980328778 217001.4402669344 -20808.07916159984
242124.7814283469 214293.67777118422 -19972.31081623248
239763.4791190726 220220.35769926172 -24569.48207647644
240761.7648113422 217614.210050921 -23724.73930126105
240211.3796330376 219679.31366807802 -21636.84907632356
235786.8344509651 214622.1365480641 -17846.489718269273
236488.9349794723 218263.344917689 -19040.48483296511
237239.2355840766 218444.0266349489 -15457.32512083244
237368.30162218682 221465.1741044716 -17577.29692093396
234335.98224260562 220459.37849661228 -17242.5426458567
239494.0142242166 212744.6247253077 -18812.160715610968
241617.486010892 216393.6181505051 -17922.500750925352
239173.44549510718 215967.0178596618 -16751.83071795433
242513.4326069595 213672.0615182977 -17105.17036209859
239625.8146635122 221773.435795899 -19585.906616315948
240669.6755302216 219088.0247139132 -18755.23513228741
240068.0033791388 221154.32972155738 -16696.8176796199
241082.8003248144 218479.0415353141 -15868.90867145964
234792.0284779291 224821.76311433988 -24105.41126563882
233777.8845644121 227166.3774175745 -20775.21521670717
234458.4601003661 232060.7814513374 -22787.446125527113
235890.9144647754 229551.91834798068 -22068.57648040168
235093.0041994378 231482.3321473907 -19960.02346845501
237981.79303964262 224940.2654214887 -23305.204223069923
239116.17233342803 222452.30105618318 -22427.93668176535
238489.6835043428 224379.98766125442 -20399.65621193778
236681.4125093969 227628.372827902 -24197.5542758915
237258.98908641288 227011.01921584588 -21329.354608840633
234965.3817390033 223712.22572424012 -18444.10048536339
234591.9926373891 226432.9625214707 -16395.25408617271
234141.898682718 233356.0003840748 -17869.29763852096
235642.09433117192 230932.6015132499 -17078.048960110522
238984.31904310602 223803.90058206732 -17519.60821839129
236583.87388031848 223875.2410632483 -15440.1932818784
238275.8499040753 225828.32074969407 -15452.787984495331
236462.8951623631 229000.6316347542 -19146.94910730971
237789.096328963 226421.96971525042 -18342.5473002671
237021.4526240501 228406.1488678033 -16262.51046600807
219026.86173512568 192186.1213327462 -14045.44973433552
220112.81735074578 193009.6101703984 -11404.605747516402
221294.9476958215 194267.1906453092 -13851.46391591169
223177.7046784373 196395.9643640602 -13239.53822334296
221209.5190370098 193940.2785466202 -8390.613900107117
222237.8290058158 195184.70203221572 -10989.2558897609
223164.13479811008 196217.2442873689 -8047.71503852651
224026.1780224991 197477.4413947404 -10469.433656704301
220992.79038434848 235884.306842643 -14758.9776564358
220328.8685866591 236713.4448767245 -12172.633599492381
219375.3732355775 237662.9322137683 -14794.14656640845
222655.7484510097 233802.01795643402 -14674.89982469643
223578.9804584129 232547.2279224372 -12627.210922495
224038.3193269439 236447.5770496562 -13804.778061318631
222007.3123928934 234702.9303835895 -12574.72884909102
221703.3090759624 235115.42306740198 -10341.834251061338
218963.8532787551 238184.48904465733 -10603.23624994695
220370.9580415388 236734.2404935317 -8709.05076306647
223106.81408531638 233265.86582752818 -10152.69346852934
222303.96032753692 234403.8129070904 -7918.39171962287
223905.3004064567 232140.10440154088 -7597.316130081574
224203.3993982299 237966.5480356365 -11270.38139971105
225904.9795598585 193584.3623424663 -14518.99387371188
225328.5349944424 193267.3470989649 -10468.97216026489
224875.494862586 198848.71579108763 -13212.611144109489
225570.9256612836 200001.8283193106 -10411.57677612937
226484.7027774966 196410.8456211629 -12515.177434040901
227382.2455746317 204151.6953327257 -13073.46661797408
226266.3932553738 201429.38841862453 -13003.504814461588
226137.46758502923 193524.4134883004 -6899.4810074976385
224831.3561693737 198655.44498035582 -7862.93622610943
226238.92804012622 201271.43136988202 -7791.474746843791
226953.4436760402 197641.6202686465 -7381.641371290431
226847.4001866052 202693.3553763603 -10340.78768517484
227374.2544636825 204016.3159176047 -7717.430003631678
224337.38111912232 231324.7985066108 -14927.01960803905
225765.2909506177 228772.3451991521 -14760.51338911158
225163.9676104502 229976.1879913582 -12344.33256375496
224921.4323280333 235248.9201826315 -11060.3305104171
226939.6856495318 226104.67243590552 -14899.20227173396
226456.945438453 227365.23184509992 -12242.71468351338
227511.005649862 224600.24373279 -12342.81052417564
226714.4434064377 232731.3237042769 -12035.12605798047
224604.5854209706 230985.6778397006 -9887.62281100236
225924.83590179798 228569.2956156212 -9675.561931224618
225333.71742173942 229730.40607090353 -7346.174865640967
224346.3575924134 236531.2509339606 -8405.204939073674
227069.3302394261 225934.43692634138 -9723.978467908308
226556.69285327598 227197.8744148329 -7274.954998896815
227599.2570064278 224424.4751465245 -7393.165251883132
227186.9619025353 234490.6392840528 -9260.068973871721
226132.0248024553 233047.5218166823 -6828.0384905608125
220059.2019888999 192740.36612059668 -6013.961315976365
220896.8013843325 193498.7700930053 -2903.0695333065923
222183.2520772757 194961.7131075573 -5604.694170146879
224003.9475058843 197350.980404472 -5324.606758979372
220192.63788487 192706.57882046918 0.0
222195.7508833072 194900.51453535302 0.0
223071.67590641193 196046.0743978357 -2799.326737312205
223965.1574551919 197286.9477958261 0.0
221036.70154015298 235971.9613332338 -5324.173555261072
219056.9887457288 238147.826556238 -5399.7179879693385
220027.9819269703 237121.465142569 -2658.613638344255
222917.7057594637 233562.9554880097 -5195.736385193642
221950.5700944448 234842.6380818261 -2678.064255946954
222682.1664398315 238238.8108309521 -6494.609646206183
221085.23252881868 235932.04901198208 0.0
221162.7409844434 238021.2127907955 -1511.823652663832
219097.4969162152 238142.67263176048 0.0
223741.5457843538 232346.2144584265 -2619.807631351037
222902.60280312298 233579.58540801032 0.0
224006.0863828429 236294.48774312952 -2478.557925439511
224079.8858576268 236189.9361471926 0.0
226139.5772560316 193144.98386274072 -3180.364050868604
225536.94387894048 199887.68476504378 -5232.280798882363
224759.29868777102 198539.8111241993 -2686.5679341196887
226167.9453979934 201165.0167826547 -2571.021776752713
227011.0980425561 198665.0327041497 -1832.7235296207991
226808.50996188802 202573.6736093823 -5182.148880568613
227308.95769731628 203904.09128320578 -2572.751016539724
224468.2388422856 195580.081010354 -1547.103843689483
224871.3925070102 192113.4656722506 0.0
225047.4313882417 195115.9533093001 0.0
225489.2919915359 199837.16887056117 0.0
226935.7340246932 197242.1471563393 0.0
227269.1220710062 194036.6913867315 0.0
226760.5572732244 202522.6247399988 0.0
225946.2267321242 228515.0542439985 -4890.732793160763
224558.9106244773 231071.07527717328 -5058.441919424171
225264.0578865044 229798.9116297111 -2573.8029831225717
227132.0007337967 225751.7142948626 -4846.096205732765
226560.2445664925 227118.2002867248 -2553.851935157175
227609.1884469348 224311.6276644721 -2605.907343556562
226533.7786591943 237926.3161385087 -5745.228694756508
226949.9823375128 234444.0561843812 -3612.257771086689
224528.1983922149 231091.0103860572 0.0
225937.7494243152 228474.2704647543 0.0
226045.8647444891 232277.181669426 -1825.595476267245
225870.4841220709 233743.0490158422 0.0
226867.080359294 229755.9770142042 -1289.828750082568
227108.1072402893 225742.3764991448 0.0
227075.8198208434 236578.0165233858 0.0
203880.7717627519 247561.7741687547 -14104.28296124961
206322.5530853015 246739.68450582752 -12791.84883173485
204041.36651592 247606.3154632184 -11167.95534557153
198882.47926824432 248702.1712833949 -13624.95483838805
201465.5424508182 248262.9970399063 -12518.556856572051
199159.7225156128 248759.9344061571 -10722.286326576499
208561.5743296381 245694.71312878968 -14444.884412871019
210917.4706349573 244449.6914932654 -13126.94540053944
208770.72574387488 245680.49698949012 -11479.492026986341
208637.51829527688 249772.4729564818 -14637.58488726801
211650.0195227112 249226.73250457732 -14216.43695412006
208659.1050935967 250470.07886842682 -11719.0346690762
211585.6239165263 248561.571364216 -10461.7320258362
201736.9139351644 248285.4221752106 -9541.846167112344
204285.9873734254 247580.6609724623 -8248.232441328348
201916.3130324629 248282.1608765152 -6816.122080101071
199474.63688566818 248785.0880042946 -7818.725426480176
197153.0583432723 249153.6438562756 -6196.686913148366
206575.8088579 246720.8586940034 -9844.769266968602
211137.314464917 244400.18523708748 -10296.40008939262
208970.4680387504 245645.6043375848 -8513.512107487886
206729.1363300035 246685.94752014932 -6860.476157437475
211423.34849714919 244268.8407174997 -7572.428068840172
208808.3808151363 249182.5738676732 -8633.733353681762
207498.94906822318 250630.4509227059 -6163.780972860392
212002.0666007912 248857.6121903448 -6506.038622542353
199987.854024217 251921.61299161092 -14797.98983019146
197659.1935653048 252467.63432302693 -12490.491543134141
200988.0375986696 252007.3069096543 -11093.491376552089
201637.15937775772 255185.4665733403 -15235.331688353901
199499.6971733518 255484.3808078575 -12984.271297528989
202504.92357777778 255108.953048435 -12375.82763739511
210178.1453771131 253268.06667267438 -13408.423481963659
203533.0690459984 251357.6785399167 -12793.148129345569
204523.87863009408 254820.00382211502 -14651.469711233069
207403.3313699234 254153.22742616292 -14011.05211176893
205484.4980222564 254635.6773193433 -11781.727903512581
208321.7845573807 253942.2525311272 -11183.243936312101
198808.72895438698 251998.0878991282 -8869.121549434776
203517.029714282 251589.82933323158 -7158.500138057473
197665.404485968 255546.8871471854 -10441.88613625731
203529.6260640616 255026.6747138358 -9461.74297043629
200644.2764614526 255372.93275659 -9971.172661193203
198839.3403588224 255491.1989416807 -7512.256984676478
201752.35534308688 255203.598697285 -7223.637504896236
205961.9724260309 250960.3245008695 -10365.110432938729
211087.4196761547 253004.3879599468 -10580.30605870688
211976.08971584067 252708.0843994309 -7749.057310104392
206401.5153774914 254420.70969708438 -8952.932405445588
209237.57630171572 253721.63502419367 -8354.0187694218
204542.9254939444 254851.4530540841 -6968.0288464258565
207382.2496364018 254136.222825554 -6316.073441424357
216144.6957213516 240716.7955274489 -13480.338905570701
218198.0346526532 238889.6537470016 -13016.79185180812
215016.2413268321 241680.22375438322 -11181.856452769409
212879.1857301566 243146.102982863 -14849.45546568617
217489.8142173993 243912.5484671597 -13878.20268791931
213110.6728670041 243068.6921482799 -11853.483983855609
214333.4046170593 242154.5508577685 -13337.993388585859
226968.6555334832 239123.2384197682 -14191.374820597232
221440.89570930542 239100.1772321164 -12802.37483864933
224327.1083164758 241113.179210822 -13278.09091721736
221052.09688081642 242138.0429544925 -14085.73337534418
226767.8632246457 243044.33152724308 -15195.84800155412
220739.20054722799 244576.8237172089 -12308.442565389101
227527.13685852088 242527.85845683748 -12362.136235601049
225377.5592078006 244491.7883589798 -12993.86847765719
217144.5758052494 239906.04456742908 -10791.86455206611
218969.2618800031 241592.12937203542 -10569.70431201779
215628.5139004917 241257.2472350152 -7977.0635965651645
218221.655011481 238967.0904167554 -8179.507790495772
213325.274725992 242988.7996760313 -9212.607043601987
218472.41372039518 244403.90381732478 -9401.41536654545
213424.90031770957 242945.9247015255 -6915.070667856658
217290.4909944853 243255.877320714 -6294.241746470533
222214.6850235872 241093.0254917376 -10178.69059504984
225299.3676691948 240990.1049189674 -8655.695194269041
220978.4233288387 242074.95026584642 -6148.75928396262
226207.18582521618 244049.4881241633 -10166.0854862511
222267.8940287929 244169.31188300252 -8452.300565581058
227011.051507403 243573.95447508138 -7334.3992544708335
214235.5101976951 246921.0013107511 -13472.66751204484
216925.8115580332 247282.9024899626 -15206.43993694667
216844.839178977 246482.9980874075 -11040.83336110685
214704.1191179088 251389.4552512518 -15024.865427723009
217305.2264319852 250073.84341360882 -14415.67975201553
212919.8604151732 252258.2534396876 -12802.77340525589
215576.3108112108 251053.2966696792 -12196.61101560163
221281.9585638773 247592.1092595698 -14380.75732920893
223222.3815785386 246258.1550567391 -13695.30154494048
221753.09898182 247446.01069380261 -12009.82340291971
219594.56054515557 248793.5265209195 -13182.79037703336
218044.9447835006 249840.5705537439 -11606.32024772341
214595.1808464935 247058.49089706148 -8906.607146952636
217429.22641740882 250317.7987038461 -6776.327058094887
213829.1857838091 252007.4882186446 -9980.135523570989
216459.7098199786 250737.746847434 -9367.93518102695
214707.52481016918 251674.5016508664 -7145.180634637512
223951.8036277775 245876.4660738766 -10797.24311434085
219377.9324826627 246251.6968480137 -6911.383160584826
224758.02098439517 245423.6146073551 -7959.8736416520305
220090.5551890028 248620.3520988709 -10772.37260677166
222146.14330396632 247390.3634173424 -8815.883642391138
219313.3529719635 249256.7724507653 -8560.895430253466
221378.9713943362 247994.2916451038 -6657.786263296326
201743.1930875165 248360.80881919348 -4486.585503826591
204273.3261569541 247621.2753354896 -5100.330079889648
202828.0717577049 248084.4672821548 -2410.6356182251243
199663.4673716349 248806.8793279877 -5096.057891530017
197122.0916479491 249209.10385023398 -3077.064153397857
200086.2717662906 248751.3063082617 -2498.344840507303
209362.4699489159 245457.11213982012 -5303.4543721750315
208785.68517786262 245755.048937408 -2464.397517357616
210944.94632053658 244570.8072210073 -2631.1363259841437
206918.7618498721 246628.8621744047 -3894.03728752325
205103.7653578299 247349.3475242454 -2348.832452985128
209762.0306161974 249167.0365425091 -3053.466758370675
198455.4842819719 249105.89891725781 0.0
201371.0 248522.0 0.0
204227.2780762032 247695.6553993374 0.0
201347.3814321866 249996.220243516 -1353.4000329413388
204082.85330007088 249268.93736401518 -1291.250372860244
203903.9432109046 250401.47729038258 0.0
208697.36644071282 247260.5071129517 -1460.862655655608
211502.8386608507 246012.62251653528 -1370.70937046836
207002.4032292945 246628.0786131852 0.0
209677.4491500838 245329.98074796668 0.0
206818.6241050498 248313.3554023534 -1622.84465705122
206722.8981104599 249355.7683794102 0.0
209377.08926665082 248116.3560968335 0.0
200557.9439010244 251712.6323284103 -5493.194549117587
198830.9735920424 251887.5178892792 -2976.5722175918554
202501.6698494585 251629.4822746544 -2889.502207863974
199996.52580182208 255366.202731608 -4947.86832273485
197095.8097964721 255466.701740147 -5136.7889181031915
202937.50589629367 255010.16570806378 -4820.244596676046
198356.8772445996 255387.3678000136 -2553.3664152255587
201387.1850250812 255145.78875931012 -2505.226294615154
210119.6569440962 253408.2846428498 -5522.1469119436
205609.4994684737 251047.05992118848 -2900.84975116943
210080.8818296587 253434.23202723011 -2586.182966245514
205694.5011662523 254528.0987603337 -4560.418913049744
208331.3154305712 253908.5041184625 -4274.030187418532
204214.6608774851 254812.53900383128 -2452.476305472588
207128.5436161735 254170.0289697251 -2304.3226902223746
198402.14969866822 252815.5748987857 0.0
201198.61516622463 251207.1042529653 0.0
203649.52029783733 252802.31235250802 0.0
200246.7621074405 253634.2743295629 -1505.265675830713
197308.8432074316 253583.3078689143 -1473.609121477245
203349.7200168891 253604.9348205078 -1406.4145883341398
199798.2541893046 255282.1258739341 0.0
201094.30342457508 253498.6561138808 0.0
202768.42198052752 254933.1717345282 0.0
208308.11564971218 251902.3789772944 -1722.53895478634
211480.3935099176 251011.6741672921 -1706.410943253795
206454.9274656066 252065.1133187385 0.0
209080.7679464906 251079.87466273928 0.0
206004.25577359932 253102.30337079178 -1274.844058171066
205720.2143390473 254476.25713660842 0.0
208638.5800832467 253822.9523972178 0.0
211501.7597480107 252973.3157714024 0.0
214596.00037419822 242102.493808761 -5096.378546382737
216875.85441522652 240227.0211767657 -5238.765234104373
215806.24632630197 241147.66186856639 -2574.759392463548
218021.8131270106 239177.1200697644 -2739.437206897395
212258.2999312555 243751.1866330959 -4956.1337879946
213451.5336650284 242947.4928352449 -2557.0361950588467
215591.2971840938 244544.8585029952 -2402.564404888588
218808.29858099308 244372.4925358513 -3105.784386855658
225290.73641213 241728.29966431978 -5548.841664702867
222574.58526654012 239562.06009403 -3343.273090772128
219613.3948612403 240927.3055593396 -2363.086698820311
226088.2548119003 241446.31481378552 -2280.956839797247
225444.8823849049 245052.59920111523 -5104.55710655884
222629.1779730334 243377.8358101202 -2855.3929741258257
225953.57505682798 244841.8396605594 -2401.26484394828
216835.5965078006 242279.1579599916 -1407.170706227977
214664.040063582 242099.12073511299 0.0
216953.593160428 240202.40827108698 0.0
219702.7308960731 240968.7770494091 0.0
212235.8659157085 243814.9864918473 0.0
217334.9637215808 243162.2620632273 0.0
219920.95407496102 243734.9292820385 0.0
222027.7585160018 238605.03211554952 0.0
222811.3666691145 241701.55112463832 0.0
226177.2720087341 241594.0365089723 0.0
225050.6518842066 238997.8974189242 0.0
223986.6280320598 244903.19578314232 -1391.273888384917
222303.9837430336 244876.4947703847 0.0
224588.32955449968 243685.91098550582 0.0
226982.9718300679 244183.2793284439 0.0
215748.86055138859 246953.69627889432 -5607.578226660511
213203.02662515378 247849.2853574698 -3242.5794028983332
217622.4137996196 247569.49805223782 -2656.565080410048
212688.11227859938 252479.6815886032 -4950.452480661654
215724.0326775472 251235.9153649136 -4361.292085465646
213186.11180217538 252358.0152233991 -2332.910229407059
220895.9980574389 248420.1951657169 -4351.523403044526
223299.292244381 246794.6581031498 -5741.191084332003
223426.56641651748 246907.0595250259 -2584.459171759526
218418.62628298652 249924.1578531607 -4858.576197441949
219693.1909103064 249122.969976842 -6124.452344692451
218347.3036938072 250049.7028200416 -2470.0870227569158
212102.7638327381 246876.4209496113 0.0
214636.2681464063 248994.5358499279 0.0
217215.6532542029 247776.1492210296 0.0
215136.5627770223 245560.417724548 0.0
214754.8625032297 249920.7313685902 -1738.2739966771442
215668.4468365279 251337.06879970132 -1879.376328165193
214333.1142210819 252010.45672291928 0.0
211841.3386681218 249890.87932209778 0.0
217047.4517788057 250758.3548304704 0.0
221031.33686479917 246116.408528524 -1928.249635384427
219845.0598292778 246515.8811425153 0.0
217813.16273379678 245557.5650937928 0.0
224666.0535215484 246074.1931950897 0.0
220934.3362548378 248544.0968759126 -1786.7575931296149
219714.2183335888 249412.91877639818 0.0
222247.27732687158 247823.17733956792 0.0
230293.6960682496 195997.09828417242 -13562.669630023951
228834.2043288778 193081.73776493839 -12766.702664488781
232282.8537309989 192822.47490514978 -12459.18566945788
229146.40050595862 199631.9786681113 -13852.99945403782
232187.683316776 199507.0948149636 -14306.85338480463
228442.08733345932 199327.5078946643 -10636.42477179465
233665.0194264765 193438.47148440138 -14534.31470646469
236053.613554987 194806.44298755768 -13665.4350710872
234338.003817926 194330.95565968342 -11786.35028888038
236397.7833764595 195641.556141626 -10709.55273152029
234429.18801864499 197079.780795298 -12498.305958665209
236017.6025237124 199488.47570139632 -13920.20116227515
237913.51983348618 199211.92789587518 -10756.71657010411
227836.21851267302 195421.09828482402 -9742.791407426856
230844.196747135 192202.0310097977 -10004.17123442924
229902.6564959641 194984.07972254138 -7077.270054659929
231763.5706425214 193320.80293955188 -7526.085323194076
231790.7705629346 196207.5504528246 -10233.779736533039
229169.15857792 201287.4420603748 -6862.444244292248
230212.93837049 197891.12939868288 -7339.0160795874635
233041.4468757389 193787.99406779688 -9777.35161252598
234856.2294136802 195071.53451775032 -9364.074158038628
234037.5303788478 194916.3651668725 -7434.796693015758
236545.3790717152 196423.9485051806 -7762.383320887655
232525.9286193047 200096.5119112298 -10479.438740585041
234572.4814143926 197429.190789464 -9629.701038572048
233192.529869405 199225.89333201692 -6835.367009327639
236442.2921023863 201055.6492505505 -8299.200334393583
228233.3125765215 207020.1780609872 -12889.58446019732
230430.55348852611 206168.7766558233 -13513.04187474441
229768.05629841742 202787.1587337404 -12605.45535115322
227835.77087929912 205480.43122409872 -10339.25117853045
228794.3378158929 209923.6589041225 -12758.757865910191
232152.1802408547 210506.51761577668 -12362.1738718868
228557.0487927025 208392.4234787796 -10219.33544680788
228987.7981245888 211332.7231258262 -10148.58079329422
236669.8644254767 204133.6682171872 -14717.92563169274
233764.0533470559 202793.1732064173 -12402.59464570324
237907.1944297622 204018.83185340528 -11127.339564427199
235875.7213519229 211537.6230891405 -12628.06676661555
237023.3353928189 207686.1661314925 -14020.73416746349
232780.1461735008 206593.9460585805 -11089.30324107337
236089.98650297182 208123.6086069089 -10126.672378501871
228232.0283498726 206851.52405414998 -7704.556997505198
230475.7053647299 204186.5231411666 -8524.954038720125
231316.733943955 206697.64432387982 -6015.221267694053
228817.10240037568 209794.1285152713 -7611.6501542351325
229113.4293360816 212728.0246979586 -7602.089245826431
230939.1311632105 209095.0917453983 -8970.09390301506
231408.7214931872 210608.9774345983 -6008.748206970237
234446.5185273549 203934.7757546928 -7634.745672033191
237944.1906219057 205746.3017613125 -7106.0398363139675
233364.126987158 211251.6591877943 -8815.718578101365
237525.1760551159 211252.2455355622 -8074.885089382411
234487.9358658591 208177.78990759669 -6643.65330944523
